x,y,z,intensity,ring,time
5.9044824,-6.3140836,-0.15089351,37.0,7,-0.054038797
31.58668,-33.789707,12.393809,33.0,15,-0.05403649
2.054946,-2.204431,-0.80751544,21.0,0,-0.054015756
8.1430235,-8.73538,0.20845154,25.0,8,-0.054013453
2.2691464,-2.4350653,-0.7684328,20.0,1,-0.054011147
11.771702,-12.636863,0.9050981,31.0,9,-0.054008845
2.5273566,-2.7140543,-0.7208764,21.0,2,-0.05400654
26.151543,-28.093208,3.3579366,8.0,10,-0.054004237
2.8609374,-3.074428,-0.66515946,31.0,3,-0.05400193
46.258423,-49.710346,8.33757,35.0,11,-0.05399963
3.1922019,-3.4316132,-0.57546705,49.0,4,-0.053997323
3.7548358,-4.0392704,-0.48249418,39.0,5,-0.053992715
4.5292563,-4.8757668,-0.34876686,44.0,6,-0.053988107
47.605183,-51.265152,16.151485,17.0,14,-0.053985804
5.8851275,-6.3375864,-0.15096332,37.0,7,-0.053983502
31.429113,-33.857285,12.378281,16.0,15,-0.053981196
2.045926,-2.210173,-0.8069978,22.0,0,-0.05396046
8.129967,-8.785714,0.20894021,28.0,8,-0.053958155
2.2628527,-2.4462266,-0.7693326,16.0,1,-0.053955853
11.867211,-12.828891,0.9158793,17.0,9,-0.053953547
2.523199,-2.7286255,-0.72240293,20.0,2,-0.053951245
2.8220346,-3.0539286,-0.6585891,32.0,3,-0.053946637
46.512333,-50.35201,8.416541,37.0,11,-0.05394433
3.1876833,-3.452041,-0.5769295,49.0,4,-0.05394203
3.7407136,-4.0523524,-0.48249418,40.0,5,-0.05393742
4.533876,-4.9150352,-0.35044158,36.0,6,-0.053932812
47.57126,-51.588604,16.200975,17.0,14,-0.05393051
5.8602576,-6.3551507,-0.15089351,40.0,7,-0.053928204
2.0381987,-2.2173011,-0.8069978,18.0,0,-0.053905163
8.107554,-8.819988,0.20911473,30.0,8,-0.05390286
2.2534099,-2.4522824,-0.7688827,18.0,1,-0.053900555
11.9304495,-12.987909,0.9242531,22.0,9,-0.053898253
2.513659,-2.7374165,-0.72240293,22.0,2,-0.053895947
26.571848,-28.947327,3.4377708,9.0,10,-0.053893644
2.803877,-3.0545392,-0.656712,36.0,3,-0.05389134
3.1856117,-3.4728324,-0.5786357,45.0,4,-0.053886734
3.7278914,-4.066854,-0.4826685,39.0,5,-0.053882126
4.5809712,-4.999253,-0.3553612,44.0,6,-0.053877518
5.8407397,-6.3785176,-0.15096332,37.0,7,-0.05387291
47.095158,-51.449398,18.689325,53.0,15,-0.053870603
2.0386508,-2.2326071,-0.81010365,17.0,0,-0.05384987
8.037621,-8.805404,0.2081025,37.0,8,-0.053847563
2.242209,-2.4572544,-0.7679829,18.0,1,-0.05384526
12.184833,-13.353454,0.9473856,12.0,9,-0.053842954
2.5164752,-2.7587912,-0.72583747,29.0,2,-0.053840652
27.450329,-30.104124,3.5643213,10.0,10,-0.05383835
2.8038435,-3.0759869,-0.6592149,32.0,3,-0.053836044
3.1641126,-3.4736583,-0.5769295,42.0,4,-0.053831436
3.7237747,-4.0895066,-0.48388866,37.0,5,-0.053826828
4.56618,-5.018167,-0.35557052,36.0,6,-0.05382222
47.90612,-52.6666,16.436724,17.0,14,-0.053819917
5.8572316,-6.4392705,-0.15194064,37.0,7,-0.05381761
2.042524,-2.2525904,-0.8147624,19.0,0,-0.053794574
7.816294,-8.620172,0.20311111,40.0,8,-0.053792268
2.2366657,-2.4675639,-0.7688827,18.0,1,-0.053789966
12.4519615,-13.742237,0.9718788,24.0,9,-0.05378766
2.49365,-2.7530077,-0.7220213,29.0,2,-0.053785358
27.735567,-30.631018,3.6152203,10.0,10,-0.05378305
2.7790432,-3.069161,-0.6557734,31.0,3,-0.05378075
48.470043,-53.548847,8.868433,46.0,11,-0.053778443
3.1579034,-3.4900198,-0.57790446,43.0,4,-0.05377614
3.700123,-4.0921345,-0.4826685,40.0,5,-0.053771533
4.5816574,-5.068842,-0.35808265,44.0,6,-0.053766925
5.8481226,-6.474517,-0.1522897,40.0,7,-0.053762317
2.0259926,-2.249303,-0.8111389,18.0,0,-0.053739276
7.7754517,-8.635515,0.20283188,49.0,8,-0.053736974
2.2345574,-2.4825983,-0.77113223,21.0,1,-0.053734668
12.684457,-14.097409,0.99385995,34.0,9,-0.053732365
2.4740014,-2.7495863,-0.71896833,32.0,2,-0.05373006
27.961607,-31.087229,3.6581006,21.0,10,-0.053727757
2.7669923,-3.0773735,-0.6554605,32.0,3,-0.05372545
3.1324344,-3.4862554,-0.57546705,42.0,4,-0.053720843
3.6924722,-4.112438,-0.48354006,39.0,5,-0.053716235
4.554597,-5.0743995,-0.35734996,38.0,6,-0.053711627
51.20615,-57.070183,17.701847,21.0,14,-0.053709324
5.8281565,-6.497868,-0.15235952,37.0,7,-0.05370702
47.32377,-52.780247,18.994732,55.0,15,-0.053704716
2.0125842,-2.2509532,-0.8090684,18.0,0,-0.05368398
7.755924,-8.674529,0.20311111,43.0,8,-0.053681675
2.2323709,-2.497648,-0.7733817,18.0,1,-0.053679373
12.697715,-14.211601,0.99877954,27.0,9,-0.053677067
2.4756775,-2.771814,-0.72240293,28.0,2,-0.053674765
28.103584,-31.476341,3.691743,22.0,10,-0.05367246
2.7464867,-3.0771782,-0.65327036,31.0,3,-0.053670157
3.1506422,-3.5312366,-0.58107305,52.0,4,-0.05366555
3.7019608,-4.1520705,-0.48667765,37.0,5,-0.05366094
4.5479255,-5.10448,-0.35829198,44.0,6,-0.053656332
48.106316,-54.012314,16.698566,18.0,14,-0.05365403
5.82007,-6.534598,-0.15274347,37.0,7,-0.053651724
2.0059974,-2.2594092,-0.80958605,13.0,0,-0.053628683
7.755936,-8.738792,0.20394883,43.0,8,-0.05362638
2.2180283,-2.4999824,-0.77158207,18.0,1,-0.053624075
12.732862,-14.351455,1.0054785,19.0,9,-0.053621773
2.4711976,-2.786314,-0.72392935,25.0,2,-0.053619467
28.268465,-31.884344,3.7279997,22.0,10,-0.053617164
2.7291772,-3.079355,-0.6517061,51.0,3,-0.05361486
49.008244,-55.315872,9.074148,50.0,11,-0.053612556
3.148208,-3.554649,-0.583023,46.0,4,-0.05361025
3.676879,-4.1530337,-0.48528317,39.0,5,-0.053605646
4.4930243,-5.07844,-0.3553612,31.0,6,-0.053601038
51.248318,-57.946056,17.859314,21.0,14,-0.05359873
5.7906003,-6.547385,-0.15256894,40.0,7,-0.05359643
2.0095963,-2.2794397,-0.81424475,19.0,0,-0.05357339
7.715012,-8.750963,0.20363468,42.0,8,-0.053571083
2.2110143,-2.5087862,-0.772032,24.0,1,-0.05356878
12.971832,-14.724011,1.0284016,28.0,9,-0.053566474
2.4601593,-2.7934499,-0.72354776,29.0,2,-0.053564172
28.453217,-32.319298,3.7672198,11.0,10,-0.05356187
2.715035,-3.0839403,-0.65076745,46.0,3,-0.053559564
3.1442697,-3.574012,-0.5844854,39.0,4,-0.053554956
3.6557822,-4.1583614,-0.4844116,39.0,5,-0.053550348
4.510439,-5.1323175,-0.35808265,40.0,6,-0.05354574
51.13819,-58.20938,17.888107,21.0,14,-0.053543437
5.7848644,-6.587091,-0.1530227,43.0,7,-0.05354113
2.0058448,-2.290451,-0.8157977,23.0,0,-0.05351809
7.6554403,-8.74474,0.20286678,49.0,8,-0.05351579
2.2009604,-2.5150218,-0.77158207,29.0,1,-0.053513486
13.120241,-14.997691,1.0443118,30.0,9,-0.05351118
2.43537,-2.783861,-0.71896833,30.0,2,-0.053508878
28.500652,-32.590446,3.7877886,11.0,10,-0.05350657
2.708154,-3.0978603,-0.6517061,37.0,3,-0.05350427
3.1278572,-3.5804808,-0.58375424,37.0,4,-0.05349966
3.6354203,-4.162958,-0.48354006,40.0,5,-0.053495053
4.48593,-5.1405063,-0.3575593,38.0,6,-0.053490445
5.7684073,-6.6147795,-0.15319723,43.0,7,-0.053485837
1.9914991,-2.29015,-0.8132095,24.0,0,-0.053462796
7.6288047,-8.775935,0.20297149,48.0,8,-0.053460494
2.2011154,-2.5329862,-0.77473146,29.0,1,-0.053458188
13.160805,-15.150453,1.0517435,34.0,9,-0.053455885
2.4204876,-2.7864165,-0.71744186,30.0,2,-0.05345358
28.939299,-33.32608,3.8615224,24.0,10,-0.053451277
2.7037985,-3.1147532,-0.65327036,45.0,3,-0.05344897
3.11534,-3.5913773,-0.58375424,37.0,4,-0.053444363
3.6117296,-4.1650853,-0.4823199,40.0,5,-0.053439755
4.5098133,-5.2044353,-0.3609088,42.0,6,-0.053435147
5.7439733,-6.633363,-0.15316232,43.0,7,-0.05343054
1.9822302,-2.2956254,-0.8126918,25.0,0,-0.0534075
7.5471654,-8.743476,0.20161021,54.0,8,-0.053405195
2.188441,-2.5362282,-0.7733817,32.0,1,-0.053402893
13.193942,-15.296118,1.0586518,35.0,9,-0.053400587
2.4261346,-2.8126879,-0.7220213,32.0,2,-0.053398285
29.409582,-34.107414,3.940137,12.0,10,-0.05339598
2.6877508,-3.1181874,-0.6520189,43.0,3,-0.053393677
3.095012,-3.5932055,-0.5822918,42.0,4,-0.05338907
3.619835,-4.2054763,-0.48545748,39.0,5,-0.05338446
4.489014,-5.217118,-0.36069945,38.0,6,-0.053379852
5.7325172,-6.667019,-0.15347646,40.0,7,-0.053375244
1.9725459,-2.3014088,-0.8121742,27.0,0,-0.053352203
7.5100927,-8.762176,0.20143569,64.0,8,-0.0533499
2.1694312,-2.532013,-0.7697825,40.0,1,-0.053347595
13.241806,-15.460399,1.0668162,35.0,9,-0.053345293
2.4119785,-2.8170877,-0.7208764,30.0,2,-0.053342987
29.687283,-34.685726,3.9943476,26.0,10,-0.053340685
2.6788726,-3.13102,-0.6526447,43.0,3,-0.05333838
3.0824502,-3.6039875,-0.5822918,46.0,4,-0.05333377
46.699398,-54.620026,11.38186,47.0,12,-0.05333147
3.6116056,-4.225659,-0.48632905,39.0,5,-0.053329162
4.503587,-5.2730227,-0.3634209,47.0,6,-0.053324558
5.713105,-6.6915507,-0.15358117,46.0,7,-0.05331995
49.150387,-57.588406,20.286755,61.0,15,-0.053317644
1.9632483,-2.3068087,-0.81165653,32.0,0,-0.05329691
7.4714484,-8.782026,0.20126115,51.0,8,-0.053294603
2.1487737,-2.5265868,-0.76573336,43.0,1,-0.0532923
13.256337,-15.587163,1.0723639,35.0,9,-0.053289995
2.4123037,-2.8374557,-0.72392935,28.0,2,-0.053287692
29.766018,-35.02446,4.021366,13.0,10,-0.053285386
2.6743214,-3.1478784,-0.654209,38.0,3,-0.053283084
3.0897758,-3.639474,-0.5861916,48.0,4,-0.053278476
3.6264846,-4.273179,-0.4903382,39.0,5,-0.053273868
47.269623,-55.718708,14.203059,56.0,13,-0.053271566
4.5032387,-5.3100367,-0.3648863,54.0,6,-0.05326926
5.6922984,-6.714504,-0.153651,46.0,7,-0.05326465
1.955184,-2.3136477,-0.81165653,40.0,0,-0.05324161
7.4822974,-8.854103,0.20234321,52.0,8,-0.05323931
2.1403835,-2.5336983,-0.76573336,34.0,1,-0.053237006
13.214732,-15.648601,1.0734105,37.0,9,-0.0532347
2.394786,-2.8368576,-0.72163963,28.0,2,-0.053232398
30.041904,-35.600178,4.0754023,14.0,10,-0.053230092
2.6791558,-3.1748462,-0.65796345,33.0,3,-0.05322779
3.0712912,-3.6421118,-0.5849729,39.0,4,-0.05322318
3.5897205,-4.259911,-0.48737493,39.0,5,-0.053218573
4.471451,-5.308138,-0.36373493,51.0,6,-0.053213965
5.677841,-6.7450414,-0.15389533,56.0,7,-0.053209357
1.9400488,-2.3112404,-0.8085507,41.0,0,-0.053186316
7.474482,-8.907741,0.20297149,55.0,8,-0.053184014
2.1340308,-2.5441406,-0.7666332,43.0,1,-0.053181708
13.271869,-15.822405,1.0823077,33.0,9,-0.053179406
2.3904111,-2.8508012,-0.7231661,28.0,2,-0.0531771
30.773531,-36.71349,4.1911454,14.0,10,-0.053174797
2.6832814,-3.2023478,-0.66171783,31.0,3,-0.05317249
3.0598338,-3.6543324,-0.58521664,42.0,4,-0.053167883
3.603708,-4.3054037,-0.49120975,37.0,5,-0.053163275
4.482367,-5.35895,-0.3661424,56.0,6,-0.053158667
5.6567254,-6.7653666,-0.15393023,53.0,7,-0.05315406
1.924548,-2.3090947,-0.8054449,40.0,0,-0.05313102
7.3706446,-8.843384,0.20094702,52.0,8,-0.053128716
2.1330667,-2.5601864,-0.7693326,43.0,1,-0.053126413
13.536108,-16.252306,1.1084757,28.0,9,-0.053124107
2.3842137,-2.8636541,-0.724311,27.0,2,-0.053121805
31.155006,-37.43324,4.2608695,15.0,10,-0.0531195
2.67012,-3.2081919,-0.66109216,33.0,3,-0.053117197
3.0603921,-3.679721,-0.587654,46.0,4,-0.05311259
47.437107,-57.05717,11.752297,52.0,12,-0.053110283
3.5721023,-4.298037,-0.4889437,39.0,5,-0.05310798
4.502861,-5.419872,-0.36928254,54.0,6,-0.053103372
5.633075,-6.7850714,-0.15393023,53.0,7,-0.053098764
1.9242718,-2.3243926,-0.8085507,40.0,0,-0.053095818
7.3371806,-8.865977,0.20087719,45.0,8,-0.053093515
2.1241174,-2.5676162,-0.7693326,40.0,1,-0.05309121
14.352458,-17.355307,1.1802807,16.0,9,-0.053088907
2.3809605,-2.8791094,-0.72621906,28.0,2,-0.0530866
2.658905,-3.2174928,-0.66109216,31.0,3,-0.053081993
3.043737,-3.68579,-0.5869228,43.0,4,-0.053077385
3.5862448,-4.345824,-0.49295285,42.0,5,-0.053072777
4.4699345,-5.4186087,-0.36813116,49.0,6,-0.05306817
5.642427,-6.844811,-0.15483776,50.0,7,-0.05306356
1.9255513,-2.3433704,-0.8126918,32.0,0,-0.053040523
7.3569694,-8.953334,0.20227338,48.0,8,-0.053038217
2.110194,-2.5689921,-0.767533,40.0,1,-0.053035915
14.412195,-17.551939,1.1902244,12.0,9,-0.05303361
2.382848,-2.902992,-0.73003525,34.0,2,-0.053031307
2.6646333,-3.2485986,-0.66547227,33.0,3,-0.0530267
3.0157485,-3.6779714,-0.58399796,49.0,4,-0.05302209
3.5899944,-4.381433,-0.49556756,40.0,5,-0.053017482
4.4513097,-5.436501,-0.36823583,54.0,6,-0.053012874
5.6362314,-6.88613,-0.15532643,52.0,7,-0.053008266
1.9222449,-2.3560653,-0.8147624,28.0,0,-0.052985225
7.374659,-9.042225,0.2036696,46.0,8,-0.052982923
2.1032267,-2.5797296,-0.7684328,40.0,1,-0.052980617
14.444926,-17.723856,1.1982843,14.0,9,-0.052978314
2.3615372,-2.8975952,-0.72660065,41.0,2,-0.05297601
30.03645,-36.867718,4.1604667,14.0,10,-0.052973706
2.6557722,-3.260944,-0.66609806,36.0,3,-0.0529714
3.018537,-3.7090156,-0.58716655,45.0,4,-0.052966792
3.5658767,-4.383119,-0.49434736,42.0,5,-0.052962184
4.433565,-5.4535556,-0.3683405,51.0,6,-0.052957576
60.268852,-74.1608,22.0623,59.0,14,-0.052955274
5.6185207,-6.916054,-0.15553585,55.0,7,-0.05295297
1.9115766,-2.3597581,-0.8137271,27.0,0,-0.05292993
7.3304667,-9.052373,0.20332053,46.0,8,-0.052927624
2.1052442,-2.6006877,-0.7724819,36.0,1,-0.052925322
13.865343,-17.134499,1.1551594,10.0,9,-0.052923016
2.3452332,-2.8981898,-0.7246926,37.0,2,-0.052920714
29.910076,-36.975437,4.1608152,14.0,10,-0.052918408
2.65431,-3.2824824,-0.668601,35.0,3,-0.052916106
3.0168006,-3.7334256,-0.58936024,43.0,4,-0.052911498
3.5155,-4.352142,-0.48946664,42.0,5,-0.05290689
4.4283013,-5.486094,-0.3694919,49.0,6,-0.05290228
5.594344,-6.9356236,-0.15553585,55.0,7,-0.052897673
1.8960632,-2.3573844,-0.8106213,40.0,0,-0.052874632
7.3063416,-9.0872555,0.20352997,42.0,8,-0.05287233
2.090049,-2.600426,-0.77023244,43.0,1,-0.052870024
13.66706,-17.00447,1.1433314,37.0,9,-0.05286772
2.3326433,-2.903298,-0.72392935,31.0,2,-0.052865416
29.89311,-37.21942,4.176503,14.0,10,-0.052863114
2.6317053,-3.2778645,-0.66578513,31.0,3,-0.05286081
3.0099614,-3.7516751,-0.5905789,40.0,4,-0.052856203
3.4616444,-4.316205,-0.484063,40.0,5,-0.052851595
4.420366,-5.515545,-0.37043396,51.0,6,-0.052846987
58.5312,-73.05888,21.612398,55.0,14,-0.05284468
5.5738144,-6.957258,-0.15560566,52.0,7,-0.05284238
1.8938504,-2.3715363,-0.8132095,35.0,0,-0.052819338
7.294884,-9.134872,0.20405354,45.0,8,-0.05281703
2.0789826,-2.6042962,-0.7693326,40.0,1,-0.05281473
13.647485,-17.102032,1.146681,37.0,9,-0.052812427
2.3249433,-2.914492,-0.7246926,37.0,2,-0.05281012
29.837542,-37.417007,4.1869617,14.0,10,-0.05280782
2.5924942,-3.251051,-0.6585891,32.0,3,-0.052805513
3.0024521,-3.7678459,-0.5915538,45.0,4,-0.052800905
3.4564857,-4.34073,-0.48545748,39.0,5,-0.052796297
4.3945875,-5.5207973,-0.3698059,54.0,6,-0.05279169
58.28861,-73.25258,21.612398,55.0,14,-0.052789386
5.5669236,-6.998582,-0.15609433,45.0,7,-0.05278708
1.8943793,-2.3883984,-0.81683296,34.0,0,-0.052764043
7.362343,-9.285635,0.20684592,40.0,8,-0.052761737
2.0577748,-2.5962653,-0.76483357,40.0,1,-0.052759435
13.621192,-17.191832,1.149507,39.0,9,-0.05275713
2.3323345,-2.9437292,-0.73003525,37.0,2,-0.052754827
30.081932,-37.98118,4.2389064,15.0,10,-0.05275252
2.5884876,-3.2693737,-0.6604664,32.0,3,-0.05275022
59.617725,-75.32682,11.795247,63.0,11,-0.052747913
2.98805,-3.7767465,-0.5913101,49.0,4,-0.05274561
3.4754422,-4.394362,-0.49016386,43.0,5,-0.052741002
4.3690977,-5.5282683,-0.36928254,49.0,6,-0.052736394
58.0688,-73.501465,21.625895,55.0,14,-0.05273409
5.5350237,-7.008555,-0.15588489,42.0,7,-0.052731786
1.888421,-2.3980322,-0.8178682,27.0,0,-0.052708745
7.307622,-9.282996,0.20621765,45.0,8,-0.052706443
2.0655713,-2.6248724,-0.77113223,43.0,1,-0.052704137
13.44626,-17.093285,1.1397727,37.0,9,-0.052701835
2.3244727,-2.9549384,-0.7307985,29.0,2,-0.05269953
2.5795012,-3.281495,-0.66109216,41.0,3,-0.05269492
2.9736223,-3.7855926,-0.59106636,52.0,4,-0.052690312
3.4871523,-4.440942,-0.49399874,48.0,5,-0.052685704
4.355939,-5.551342,-0.3698059,49.0,6,-0.052681096
57.89607,-73.81106,21.657387,55.0,14,-0.052678794
5.5277996,-7.049864,-0.15637356,45.0,7,-0.05267649
1.877659,-2.4015656,-0.81683296,27.0,0,-0.05265345
7.302265,-9.34311,0.20698555,37.0,8,-0.052651145
2.0551963,-2.630531,-0.7706823,37.0,1,-0.052648842
13.4455185,-17.215672,1.1447968,31.0,9,-0.052646536
2.298434,-2.94292,-0.72583747,43.0,2,-0.052644234
2.5680308,-3.2904792,-0.66109216,42.0,3,-0.052639626
2.9628315,-3.7990801,-0.5915538,51.0,4,-0.052635018
3.4704046,-4.4515157,-0.49382445,40.0,5,-0.05263041
4.3254876,-5.552333,-0.36886385,47.0,6,-0.0526258
5.510527,-7.078584,-0.15658298,42.0,7,-0.052621193
1.8633416,-2.400475,-0.81424475,35.0,0,-0.052598152
7.2781878,-9.3796015,0.20722988,39.0,8,-0.05259585
2.0567513,-2.6515474,-0.77473146,47.0,1,-0.052593544
13.402477,-17.284597,1.1462622,11.0,9,-0.052591242
2.2833352,-2.944719,-0.724311,41.0,2,-0.052588936
2.54927,-3.2900543,-0.6592149,42.0,3,-0.052584328
2.9507675,-3.8109694,-0.5917976,57.0,4,-0.052579723
3.436552,-4.4399686,-0.49120975,43.0,5,-0.052575115
4.3390713,-5.6100545,-0.37169,47.0,6,-0.052570507
5.4919,-7.105688,-0.15675752,48.0,7,-0.0525659
1.8584889,-2.411555,-0.8157977,32.0,0,-0.052542858
7.275912,-9.444554,0.2081025,46.0,8,-0.052540552
2.047483,-2.6587107,-0.77473146,44.0,1,-0.05253825
13.761169,-17.875696,1.1822693,12.0,9,-0.052535944
2.2790303,-2.96045,-0.72621906,46.0,2,-0.05253364
2.5317473,-3.2911043,-0.65765053,45.0,3,-0.052529033
2.9350271,-3.818098,-0.5913101,48.0,4,-0.052524425
3.4287517,-4.463595,-0.4924299,45.0,5,-0.052519817
4.321895,-5.6283345,-0.37189934,45.0,6,-0.05251521
5.4780188,-7.1390924,-0.15707165,42.0,7,-0.0525106
1.8590264,-2.4306264,-0.8199388,26.0,0,-0.052487563
7.27813,-9.515957,0.20911473,45.0,8,-0.052485257
2.0322719,-2.6581008,-0.7724819,41.0,1,-0.052482955
13.65624,-17.868084,1.1786058,10.0,9,-0.05248065
2.2717402,-2.9734633,-0.72736394,46.0,2,-0.052478347
31.911016,-41.7832,4.5997314,18.0,10,-0.05247604
2.5280592,-3.3113525,-0.6598407,36.0,3,-0.05247374
2.9325206,-3.8425226,-0.5935038,51.0,4,-0.05246913
3.4179828,-4.4818735,-0.4931272,53.0,5,-0.052464522
4.2770257,-5.612366,-0.3698059,45.0,6,-0.052459914
5.4506416,-7.1549892,-0.15700185,45.0,7,-0.052455306
1.8493626,-2.4355621,-0.8194211,29.0,0,-0.052432265
7.225068,-9.518676,0.20859116,37.0,8,-0.052429963
2.0060246,-2.6437976,-0.76618326,41.0,1,-0.052427657
13.179696,-17.369902,1.1427034,1.0,9,-0.052425355
2.2589738,-2.9782467,-0.72660065,46.0,2,-0.05242305
2.517678,-3.321731,-0.6601535,48.0,3,-0.05241844
2.9148219,-3.8484979,-0.59277254,48.0,4,-0.052413832
3.4107358,-4.504896,-0.49434736,52.0,5,-0.052409224
4.261024,-5.63204,-0.37011993,40.0,6,-0.052404616
55.836052,-73.82848,21.370352,53.0,14,-0.052402314
5.3966837,-7.1356936,-0.15616412,39.0,7,-0.052400008
1.8396868,-2.4404602,-0.81890345,27.0,0,-0.05237697
7.2548547,-9.624021,0.21037132,39.0,8,-0.052374665
2.008974,-2.6659987,-0.7706823,45.0,1,-0.052372362
12.974778,-17.224365,1.1301428,1.0,9,-0.052370057
2.2462022,-2.982977,-0.72583747,46.0,2,-0.052367754
2.5137768,-3.339531,-0.66203076,43.0,3,-0.052363146
2.8948839,-3.848624,-0.5913101,42.0,4,-0.052358538
3.4117494,-4.539072,-0.49678773,52.0,5,-0.05235393
4.2555213,-5.6637034,-0.3712713,38.0,6,-0.05234932
55.396637,-73.75458,21.295668,52.0,14,-0.05234702
5.3825483,-7.168881,-0.15647829,35.0,7,-0.052344713
1.8281105,-2.4419081,-0.8173506,37.0,0,-0.052321672
7.2463765,-9.682907,0.21110432,42.0,8,-0.05231937
2.0124967,-2.6901596,-0.77563125,40.0,1,-0.052317064
12.861945,-17.199173,1.1255372,1.0,9,-0.052314762
2.2339466,-2.9872649,-0.72507423,51.0,2,-0.052312456
32.385704,-43.322376,4.7322083,19.0,10,-0.052310154
2.4914622,-3.334044,-0.6592149,40.0,3,-0.052307848
2.89806,-3.8809729,-0.59472245,37.0,4,-0.05230324
3.395487,-4.548764,-0.4966134,55.0,5,-0.052298635
4.2715507,-5.7265515,-0.37441146,49.0,6,-0.052294027
55.260006,-74.10998,21.342457,52.0,14,-0.05229172
5.3551016,-7.1844196,-0.15640847,35.0,7,-0.05228942
1.8218802,-2.4513755,-0.81838584,29.0,0,-0.052266378
7.2232656,-9.7225895,0.21141845,49.0,8,-0.052264072
1.9996083,-2.6924746,-0.7742815,39.0,1,-0.05226177
12.797069,-17.23755,1.1251185,3.0,9,-0.052259464
2.2340379,-3.0092316,-0.7285088,51.0,2,-0.05225716
2.4798088,-3.3427207,-0.6592149,41.0,3,-0.052252553
2.8904064,-3.8990393,-0.5959411,45.0,4,-0.052247945
3.3878915,-4.571794,-0.4978336,50.0,5,-0.052243337
4.2824383,-5.7831597,-0.37713292,47.0,6,-0.05223873
55.464745,-74.92893,21.522417,54.0,14,-0.052236427
5.370432,-7.2577224,-0.15759523,35.0,7,-0.05223412
1.8087243,-2.4515018,-0.8163153,37.0,0,-0.05221108
7.2391353,-9.815336,0.21288446,39.0,8,-0.052208778
1.9901975,-2.6994383,-0.7742815,45.0,1,-0.052206475
12.800806,-17.368937,1.1307708,11.0,9,-0.05220417
2.2363324,-3.0343962,-0.73270655,47.0,2,-0.052201867
2.47164,-3.3561282,-0.6601535,48.0,3,-0.05219726
2.869719,-3.899512,-0.5944787,39.0,4,-0.05219265
3.388441,-4.606061,-0.50027394,47.0,5,-0.052188043
4.2906156,-5.8366942,-0.37964505,52.0,6,-0.052183434
55.31825,-75.27912,21.567408,54.0,14,-0.05218113
5.362823,-7.300598,-0.1581188,39.0,7,-0.052178826
1.8058636,-2.465593,-0.81890345,34.0,0,-0.052155785
7.168208,-9.790528,0.21180241,42.0,8,-0.052153483
1.9784608,-2.7032237,-0.7733817,45.0,1,-0.052151177
12.666984,-17.313576,1.124281,5.0,9,-0.052148875
2.2141347,-3.026339,-0.7288904,43.0,2,-0.05214657
2.4727337,-3.3822763,-0.6635951,38.0,3,-0.05214196
2.8514059,-3.9030938,-0.5935038,39.0,4,-0.052137353
3.3711674,-4.6162515,-0.50009966,48.0,5,-0.052132744
4.250201,-5.8242087,-0.37786564,42.0,6,-0.052128136
5.3420196,-7.3257365,-0.15825842,45.0,7,-0.052123528
1.793838,-2.4671946,-0.8173506,35.0,0,-0.05210049
7.141043,-9.825195,0.21201184,34.0,8,-0.052098185
1.9770308,-2.7211494,-0.77653104,43.0,1,-0.052095883
12.985567,-17.87966,1.1580901,6.0,9,-0.052093577
2.1989424,-3.0276952,-0.72736394,46.0,2,-0.052091274
35.30566,-48.629757,5.2575827,23.0,10,-0.05208897
2.455111,-3.3828938,-0.66203076,50.0,3,-0.052086666
2.8365984,-3.911416,-0.59326,52.0,4,-0.052082058
3.3410006,-4.6086335,-0.4980079,53.0,5,-0.05207745
4.1712604,-5.7581363,-0.37263206,47.0,6,-0.05207284
5.3046894,-7.3281403,-0.15790938,39.0,7,-0.052068233
1.7852148,-2.4734411,-0.8173506,35.0,0,-0.052045193
7.1184034,-9.86628,0.21236087,46.0,8,-0.05204289
1.9663802,-2.726453,-0.7760811,48.0,1,-0.052040584
12.905556,-17.90058,1.1565201,12.0,9,-0.052038282
2.1849158,-3.030575,-0.72621906,50.0,2,-0.052035976
2.4490612,-3.3994567,-0.6635951,58.0,3,-0.052031368
2.8136494,-3.9084055,-0.5913101,49.0,4,-0.05202676
3.3411853,-4.642908,-0.5004482,48.0,5,-0.05202215
4.139475,-5.756447,-0.37158534,56.0,6,-0.052017547
54.838566,-76.287834,21.69068,56.0,14,-0.05201524
5.2604065,-7.3206306,-0.1573509,39.0,7,-0.05201294
1.7844461,-2.4906502,-0.82097405,34.0,0,-0.051989898
7.1200156,-9.941465,0.21344294,45.0,8,-0.051987592
1.9523135,-2.7269626,-0.7742815,45.0,1,-0.05198529
12.925521,-18.060837,1.1639519,10.0,9,-0.051982984
2.1811793,-3.0477626,-0.7285088,51.0,2,-0.05198068
35.053406,-48.998203,5.2708306,23.0,10,-0.051978376
2.441776,-3.4144123,-0.66484654,53.0,3,-0.051976074
2.8138397,-3.9375844,-0.594235,57.0,4,-0.051971465
3.3307495,-4.6626496,-0.5013198,40.0,5,-0.051966857
4.140242,-5.8001213,-0.3734694,42.0,6,-0.05196225
54.657967,-76.59936,21.724873,56.0,14,-0.051959947
5.3068166,-7.4398828,-0.159515,39.0,7,-0.05195764
1.7813392,-2.5047355,-0.82356226,31.0,0,-0.0519346
7.0945387,-9.979297,0.21372217,43.0,8,-0.051932298
1.9450403,-2.7369378,-0.7751813,48.0,1,-0.051929995
12.914449,-18.179115,1.1686621,4.0,9,-0.05192769
2.1796231,-3.068162,-0.7315617,50.0,2,-0.051925387
2.4286993,-3.421304,-0.6645337,51.0,3,-0.05192078
54.559803,-76.88672,11.575883,63.0,11,-0.051918473
2.7885928,-3.9311914,-0.5917976,48.0,4,-0.05191617
3.3017762,-4.6563697,-0.4994024,42.0,5,-0.051911563
4.1834793,-5.9041686,-0.3792264,40.0,6,-0.051906954
5.2889037,-7.4697857,-0.15975933,39.0,7,-0.051902346
1.761444,-2.4951563,-0.81838584,31.0,0,-0.051879305
7.0239196,-9.953352,0.21264012,33.0,8,-0.051877003
1.9365984,-2.745303,-0.77563125,43.0,1,-0.051874697
12.894651,-18.286108,1.1726395,4.0,9,-0.051872395
2.163243,-3.067729,-0.7296536,42.0,2,-0.05187009
2.4144664,-3.4265318,-0.663908,55.0,3,-0.05186548
54.17677,-76.914406,11.551508,63.0,11,-0.05186318
2.7748535,-3.9409015,-0.5917976,49.0,4,-0.051860873
3.3049977,-4.6955643,-0.5023657,40.0,5,-0.051856264
4.1398644,-5.8860626,-0.37713292,40.0,6,-0.051851656
5.278895,-7.5111065,-0.160248,42.0,7,-0.051847048
1.7638094,-2.5171106,-0.82356226,29.0,0,-0.05182401
7.072884,-10.097372,0.21518818,31.0,8,-0.051821705
1.9281213,-2.7536426,-0.7760811,45.0,1,-0.051819403
13.933661,-19.906725,1.2734386,4.0,9,-0.051817097
2.1525216,-3.0752616,-0.7296536,37.0,2,-0.051814795
2.4070196,-3.4414136,-0.66515946,45.0,3,-0.051810186
2.773589,-3.9684615,-0.5944787,52.0,4,-0.05180558
3.2863047,-4.7038054,-0.5020171,39.0,5,-0.05180097
4.123866,-5.9070277,-0.37755162,45.0,6,-0.05179636
5.241203,-7.5130877,-0.15989895,42.0,7,-0.051791754
1.758763,-2.527703,-0.82511514,26.0,0,-0.051778316
6.992545,-10.053463,0.21375707,45.0,8,-0.051776014
1.930104,-2.7760215,-0.78058016,36.0,1,-0.05177371
13.215571,-19.014713,1.2135663,6.0,9,-0.051771406
2.13783,-3.075934,-0.7281272,37.0,2,-0.0517691
2.3955941,-3.4493763,-0.66515946,48.0,3,-0.051764492
2.7762585,-4.000469,-0.59789103,58.0,4,-0.051759884
3.251382,-4.6868477,-0.49905378,40.0,5,-0.051755276
4.1042547,-5.9206705,-0.37755162,47.0,6,-0.051750667
5.1923485,-7.495906,-0.15916595,52.0,7,-0.05174606
1.7521245,-2.537006,-0.8261504,27.0,0,-0.051723022
6.9744515,-10.102495,0.21428065,34.0,8,-0.051720716
1.9248294,-2.7891574,-0.78237975,36.0,1,-0.051718414
12.061483,-17.484116,1.1131859,1.0,9,-0.051716108
2.1404576,-3.10277,-0.73270655,36.0,2,-0.051713806
2.3835392,-3.457718,-0.66515946,48.0,3,-0.051709197
2.7769165,-4.031388,-0.6010596,61.0,4,-0.05170459
53.568718,-77.797424,14.960455,63.0,12,-0.051702283
3.2564712,-4.729347,-0.5023657,39.0,5,-0.05169998
4.0597887,-5.900408,-0.37535352,40.0,6,-0.051695373
5.157087,-7.500802,-0.1588867,45.0,7,-0.051690765
1.7498118,-2.5526671,-0.8292563,26.0,0,-0.051667724
6.974184,-10.177916,0.21536268,48.0,8,-0.05166542
1.9095753,-2.7878206,-0.78013027,33.0,1,-0.051663116
13.882527,-20.274918,1.2877786,7.0,9,-0.051660813
2.1407058,-3.126422,-0.73652273,34.0,2,-0.051658507
2.3770318,-3.4741683,-0.6667237,42.0,3,-0.0516539
2.7594662,-4.03614,-0.60032845,60.0,4,-0.05164929
3.2556813,-4.7637143,-0.50480604,39.0,5,-0.051644683
4.0876017,-5.985465,-0.3798544,35.0,6,-0.051640075
5.148907,-7.5451865,-0.1594452,52.0,7,-0.05163547
1.7441505,-2.5635514,-0.8308091,31.0,0,-0.05161243
6.9217453,-10.177396,0.21483912,45.0,8,-0.051610123
1.9053109,-2.8025272,-0.78237975,39.0,1,-0.05160782
13.664607,-20.106855,1.2740667,4.0,9,-0.051605515
2.113227,-3.1095185,-0.7307985,38.0,2,-0.051603213
2.3549027,-3.4677374,-0.663908,31.0,3,-0.051598605
2.7464755,-4.047391,-0.6005722,57.0,4,-0.051593997
3.24127,-4.778348,-0.50515467,39.0,5,-0.05158939
4.07901,-6.0178823,-0.3810058,42.0,6,-0.05158478
5.118052,-7.5564904,-0.15930556,45.0,7,-0.051580172
1.7297859,-2.5616188,-0.82822096,27.0,0,-0.05155713
6.954425,-10.302598,0.21696831,33.0,8,-0.05155483
1.8976965,-2.8123915,-0.78327954,39.0,1,-0.051552523
13.670281,-20.267025,1.2811843,7.0,9,-0.05155022
2.1100445,-3.1282697,-0.7334698,37.0,2,-0.051547915
2.3681767,-3.513611,-0.67110395,32.0,3,-0.05154331
2.7356572,-4.061892,-0.60130334,52.0,4,-0.051538702
3.2178946,-4.7797165,-0.50410885,39.0,5,-0.051534094
4.1048017,-6.1016855,-0.38540202,52.0,6,-0.051529486
5.115072,-7.6091614,-0.16003856,39.0,7,-0.051524878
1.7186828,-2.564432,-0.8271857,27.0,0,-0.051501837
6.8594303,-10.238761,0.21511836,15.0,8,-0.05149953
1.8954582,-2.830333,-0.78642887,40.0,1,-0.05149723
13.691673,-20.452377,1.2898722,2.0,9,-0.051494926
2.1067572,-3.1470363,-0.73614115,41.0,2,-0.05149262
2.3558974,-3.5218563,-0.67110395,36.0,3,-0.051488012
2.7247715,-4.0763683,-0.60203457,54.0,4,-0.051483404
3.208939,-4.8025165,-0.505329,37.0,5,-0.051478796
4.072387,-6.099366,-0.3843553,45.0,6,-0.051474188
5.1051283,-7.651922,-0.16056214,32.0,7,-0.05146958
1.7097206,-2.5704155,-0.8271857,32.0,0,-0.051446542
6.9244037,-10.414177,0.2182947,25.0,8,-0.051444236
1.8855668,-2.836932,-0.78642887,40.0,1,-0.051441934
13.485354,-20.297089,1.2771021,2.0,9,-0.051439628
2.0935862,-3.1511002,-0.7353779,38.0,2,-0.051437326
2.3457747,-3.5333495,-0.6717297,36.0,3,-0.051432718
2.7247915,-4.107359,-0.6052032,46.0,4,-0.05142811
3.1965601,-4.82033,-0.5060262,40.0,5,-0.0514235
4.0610013,-6.1285286,-0.38529736,47.0,6,-0.051418893
5.114818,-7.724717,-0.161714,39.0,7,-0.051414285
1.7113807,-2.5924902,-0.83236206,26.0,0,-0.051391244
6.8461566,-10.374859,0.21696831,58.0,8,-0.05138894
1.8702877,-2.8353631,-0.78417933,41.0,1,-0.051386636
13.484787,-20.450752,1.2838011,2.0,9,-0.051384334
2.0944622,-3.1764185,-0.7395757,37.0,2,-0.051382028
49.666233,-75.35142,7.8956127,63.0,10,-0.051379725
2.3497288,-3.5662594,-0.6764227,38.0,3,-0.05137742
2.7268116,-4.1417155,-0.6088593,52.0,4,-0.05137281
3.1742377,-4.8231373,-0.50515467,39.0,5,-0.051368203
4.027512,-6.12431,-0.38414595,40.0,6,-0.051363595
5.102099,-7.7642493,-0.16216777,32.0,7,-0.05135899
1.7044381,-2.6016805,-0.8333974,26.0,0,-0.05133595
6.8088045,-10.39702,0.21693341,18.0,8,-0.051333643
1.8657157,-2.8500266,-0.78642887,43.0,1,-0.05133134
13.866078,-21.18959,1.3271353,7.0,9,-0.051329035
2.0844364,-3.1853528,-0.73995733,39.0,2,-0.051326733
2.3307798,-3.5645196,-0.6745455,43.0,3,-0.051322125
2.710166,-4.1478853,-0.6083718,51.0,4,-0.051317517
3.1584725,-4.8358564,-0.505329,40.0,5,-0.05131291
3.9624462,-6.0714293,-0.37995908,38.0,6,-0.0513083
5.0837045,-7.7954116,-0.162447,35.0,7,-0.051303692
1.6953465,-2.607614,-0.8333974,26.0,0,-0.05128065
6.944643,-10.685644,0.22244836,27.0,8,-0.05127835
1.8536327,-2.8532534,-0.7855291,47.0,1,-0.051276043
16.981415,-26.14909,1.6340334,10.0,9,-0.05127374
2.0722353,-3.1909633,-0.7395757,37.0,2,-0.051271435
2.3226242,-3.579262,-0.675797,43.0,3,-0.051266827
2.6945908,-4.155654,-0.6081281,49.0,4,-0.051262222
3.1448238,-4.851868,-0.5058519,40.0,5,-0.051257614
3.9846582,-6.1522784,-0.38414595,40.0,6,-0.051253006
5.0575485,-7.814788,-0.1624819,39.0,7,-0.051248398
1.6673815,-2.5842967,-0.8240799,27.0,0,-0.051225357
6.9604087,-10.792165,0.22415872,25.0,8,-0.05122305
1.8447177,-2.8613443,-0.785979,37.0,1,-0.05122075
16.87946,-26.181755,1.632568,10.0,9,-0.051218443
2.0653389,-3.204778,-0.7411022,37.0,2,-0.05121614
2.319742,-3.6022954,-0.6786128,41.0,3,-0.051211532
2.7044337,-4.2012887,-0.61349034,47.0,4,-0.051206924
3.1084673,-4.832653,-0.5027143,40.0,5,-0.051202316
3.9566796,-6.156069,-0.38351792,42.0,6,-0.051197708
5.042415,-7.8483405,-0.16283096,40.0,7,-0.0511931
1.6629698,-2.5963187,-0.8261504,32.0,0,-0.051170062
6.940757,-10.840447,0.22468229,18.0,8,-0.051167756
1.8236635,-2.849391,-0.78103006,44.0,1,-0.051165454
17.048788,-26.637953,1.6574799,15.0,9,-0.051163148
2.0663378,-3.2298007,-0.7453,38.0,2,-0.051160846
2.3024633,-3.6016462,-0.67704844,32.0,3,-0.051156238
2.685142,-4.20187,-0.6122716,50.0,4,-0.05115163
3.1138697,-4.8765197,-0.50620055,39.0,5,-0.05114702
3.937318,-6.17084,-0.3836226,40.0,6,-0.051142413
5.035717,-7.895365,-0.16345924,33.0,7,-0.051137805
1.661607,-2.6132302,-0.8297739,31.0,0,-0.051114764
7.142902,-11.238063,0.23243116,30.0,8,-0.05111246
1.8142045,-2.8554227,-0.78103006,47.0,1,-0.051110156
17.08098,-26.89456,1.6697265,30.0,9,-0.051107854
2.0556164,-3.236635,-0.7453,39.0,2,-0.051105548
2.316969,-3.650958,-0.6848702,30.0,3,-0.05110094
2.682152,-4.229658,-0.61495274,47.0,4,-0.05109633
3.1030154,-4.8952327,-0.5070721,39.0,5,-0.051091723
3.9179018,-6.18555,-0.38372725,42.0,6,-0.051087115
5.0615973,-7.9973807,-0.16520448,30.0,7,-0.051082507
1.6658764,-2.6402543,-0.8365032,44.0,0,-0.05105947
6.62145,-10.498424,0.21665418,25.0,8,-0.051057164
1.8031869,-2.8600898,-0.78058016,45.0,1,-0.05105486
17.064735,-27.077372,1.6773677,15.0,9,-0.051052555
2.0495396,-3.2520955,-0.74720806,36.0,2,-0.051050253
2.3105264,-3.669053,-0.68674743,33.0,3,-0.051045645
48.708103,-77.3771,11.226361,63.0,11,-0.05104334
2.658914,-4.225554,-0.61300284,45.0,4,-0.051041037
3.0996995,-4.927959,-0.50933814,39.0,5,-0.05103643
3.9058514,-6.214407,-0.3846693,40.0,6,-0.05103182
5.0730014,-8.077658,-0.16649596,33.0,7,-0.051027212
1.648449,-2.6329536,-0.83236206,46.0,0,-0.05100417
7.0303245,-11.233414,0.2313142,29.0,8,-0.05100187
1.792159,-2.8647144,-0.78013027,47.0,1,-0.050999563
16.970112,-27.136774,1.6773677,3.0,9,-0.05099726
2.0131924,-3.2192802,-0.73804927,34.0,2,-0.050994955
2.3123596,-3.700549,-0.69112754,39.0,3,-0.050990347
48.370407,-77.438896,11.210762,63.0,11,-0.050988045
2.6451988,-4.236493,-0.61324656,48.0,4,-0.05098574
3.1025224,-4.970863,-0.5126501,39.0,5,-0.050981134
3.8809648,-6.222919,-0.3843553,30.0,6,-0.050976526
5.0659256,-8.12926,-0.16719407,33.0,7,-0.050971918
1.6351706,-2.6321282,-0.8302915,43.0,0,-0.050948877
6.823335,-10.987777,0.22576433,37.0,8,-0.05094657
1.7842038,-2.8742642,-0.78103006,47.0,1,-0.05094427
17.709303,-28.539938,1.7602677,24.0,9,-0.050941963
2.006083,-3.232961,-0.7395757,49.0,2,-0.05093966
2.3004694,-3.7102764,-0.6914404,34.0,3,-0.050935052
2.6429403,-4.2659507,-0.6161715,48.0,4,-0.050930444
3.1008866,-5.00707,-0.51526475,39.0,5,-0.050925836
3.8991566,-6.3009667,-0.38833284,49.0,6,-0.050921228
5.0217423,-8.121381,-0.16667047,43.0,7,-0.05091662
1.6350958,-2.6526206,-0.83495027,38.0,0,-0.05089358
6.7702537,-10.987694,0.22527567,12.0,8,-0.050891276
1.7690498,-2.8721783,-0.7787805,41.0,1,-0.050888974
17.8012,-28.912815,1.7794226,20.0,9,-0.05088667
1.9989033,-3.2466307,-0.7411022,43.0,2,-0.050884366
2.299925,-3.7384741,-0.69519484,42.0,3,-0.050879758
2.621796,-4.2650037,-0.614709,48.0,4,-0.05087515
3.0614848,-4.9822164,-0.5116042,37.0,5,-0.05087054
3.8572822,-6.2822003,-0.38634408,45.0,6,-0.050865933
4.9849987,-8.125225,-0.16639124,43.0,7,-0.050861325
1.6248184,-2.6566641,-0.83443266,46.0,0,-0.050838284
7.124045,-11.652759,0.23839988,27.0,8,-0.050835982
1.7590132,-2.878336,-0.7787805,45.0,1,-0.050833676
17.829275,-29.186125,1.792402,20.0,9,-0.050831374
1.9834644,-3.246887,-0.7395757,36.0,2,-0.050829068
2.3002405,-3.7683985,-0.69926214,38.0,3,-0.05082446
2.6048255,-4.27074,-0.6142216,50.0,4,-0.05081985
3.0617073,-5.0217915,-0.5145675,39.0,5,-0.050815243
3.8155866,-6.2632184,-0.3843553,45.0,6,-0.050810635
4.946208,-8.125496,-0.16604221,43.0,7,-0.050806027
1.6105242,-2.6540618,-0.83184445,50.0,0,-0.05078299
7.0242114,-11.580099,0.23641029,35.0,8,-0.050780684
1.7499657,-2.886125,-0.7792305,47.0,1,-0.05077838
18.071009,-29.80355,1.8266296,12.0,9,-0.050776076
1.9670304,-3.245396,-0.7376676,38.0,2,-0.050773773
2.2952585,-3.7899222,-0.70176506,42.0,3,-0.050769165
2.597096,-4.2916946,-0.61592776,52.0,4,-0.050764557
3.070971,-5.076772,-0.5190996,39.0,5,-0.05075995
3.7947342,-6.2782083,-0.38445997,45.0,6,-0.05075534
4.913032,-8.131583,-0.16583277,40.0,7,-0.050750732
1.6002536,-2.6580122,-0.8313268,47.0,0,-0.05072769
6.9682384,-11.574204,0.23581693,26.0,8,-0.05072539
1.7413902,-2.8935816,-0.7796803,48.0,1,-0.050723083
18.167631,-30.20018,1.8470407,21.0,9,-0.05072078
1.9556897,-3.2522423,-0.7376676,39.0,2,-0.050718475
45.448326,-75.60882,7.7179894,22.0,10,-0.050716173
2.266395,-3.7704244,-0.69675916,38.0,3,-0.050713867
2.5818274,-4.2985816,-0.615684,48.0,4,-0.05070926
3.0470788,-5.0772104,-0.5180537,39.0,5,-0.05070465
3.7903337,-6.318161,-0.3861347,45.0,6,-0.050700046
4.9144316,-8.1984215,-0.16684501,37.0,7,-0.050695438
1.5854847,-2.6533542,-0.82822096,42.0,0,-0.050672397
6.997524,-11.715198,0.23819044,19.0,8,-0.05067009
1.7322781,-2.901316,-0.78013027,47.0,1,-0.05066779
18.098951,-30.325155,1.850809,12.0,9,-0.050665483
1.9539499,-3.2738822,-0.7411022,46.0,2,-0.05066318
44.09592,-73.912926,7.529907,63.0,10,-0.050660875
2.2431026,-3.7613463,-0.69363046,37.0,3,-0.050658572
2.575952,-4.3229156,-0.6178776,52.0,4,-0.050653964
3.0618336,-5.1403513,-0.5234574,40.0,5,-0.050649356
3.7845995,-6.3588142,-0.3878095,45.0,6,-0.050644748
4.8816953,-8.2086525,-0.16670538,40.0,7,-0.05064014
1.5771983,-2.6605341,-0.82873863,40.0,0,-0.0506171
7.0085783,-11.82729,0.2399706,21.0,8,-0.050614797
1.7181674,-2.9006386,-0.7783307,53.0,1,-0.050612494
18.37051,-31.025745,1.8896422,13.0,9,-0.05061019
1.9445103,-3.2840617,-0.7418654,51.0,2,-0.050607886
2.2219126,-3.7555525,-0.69112754,37.0,3,-0.050603278
2.5800402,-4.364349,-0.62250865,50.0,4,-0.05059867
3.0600893,-5.178452,-0.52624637,43.0,5,-0.05059406
3.7928445,-6.4235806,-0.39094964,47.0,6,-0.050589453
4.855045,-8.229087,-0.1667752,33.0,7,-0.050584845
1.5610468,-2.6543667,-0.82511514,42.0,0,-0.050561804
6.550735,-11.1431675,0.22562471,3.0,8,-0.050559502
1.7030951,-2.8982177,-0.7760811,48.0,1,-0.050557196
1.9320405,-3.2891364,-0.7414838,50.0,2,-0.050552588
2.2107894,-3.766693,-0.6917533,34.0,3,-0.05054798
2.5567567,-4.3596287,-0.62055874,50.0,4,-0.05054337
3.056101,-5.2131658,-0.52868676,42.0,5,-0.050538763
3.7512193,-6.404037,-0.38896087,42.0,6,-0.050534155
4.9444723,-8.4479065,-0.17085907,31.0,7,-0.050529547
1.5556657,-2.6664743,-0.8271857,44.0,0,-0.05050651
6.9550514,-11.926024,0.24098283,29.0,8,-0.050504204
1.6978755,-2.9125628,-0.7783307,47.0,1,-0.0505019
18.442059,-31.648502,1.919683,22.0,9,-0.050499596
1.9185705,-3.292468,-0.74072057,50.0,2,-0.050497293
2.1996157,-3.7778006,-0.692379,35.0,3,-0.050492685
2.535534,-4.3582325,-0.61909634,39.0,4,-0.050488077
3.029872,-5.2100234,-0.52729225,40.0,5,-0.05048347
3.702752,-6.3721933,-0.38623938,42.0,6,-0.05047886
4.844669,-8.34406,-0.16841573,23.0,7,-0.050474253
1.5405425,-2.6618564,-0.8240799,43.0,0,-0.05045986
6.9544363,-12.021196,0.24241392,21.0,8,-0.05045756
1.6730651,-2.893167,-0.77158207,39.0,1,-0.050455254
18.673315,-32.304054,1.9554809,23.0,9,-0.05045295
1.8923285,-3.2736492,-0.7349963,42.0,2,-0.050450645
2.1844397,-3.782035,-0.6917533,37.0,3,-0.050446037
2.5272508,-4.3790917,-0.6208025,40.0,4,-0.05044143
3.0285919,-5.2499065,-0.5302555,40.0,5,-0.05043682
3.7044246,-6.4266086,-0.38875154,28.0,6,-0.050432213
4.907332,-8.520341,-0.17162697,35.0,7,-0.050427604
1.5264322,-2.6588407,-0.8214917,46.0,0,-0.050404567
7.0667048,-12.314231,0.24782418,28.0,8,-0.05040226
1.6658647,-2.9040606,-0.7729318,40.0,1,-0.05039996
18.727346,-32.660122,1.9730657,23.0,9,-0.050397653
1.8750303,-3.270016,-0.73270655,34.0,2,-0.05039535
47.303288,-82.52937,8.322328,63.0,10,-0.050393045
2.1869364,-3.8170612,-0.69675916,45.0,3,-0.050390743
2.528716,-4.417174,-0.62494606,42.0,4,-0.050386135
2.9954052,-5.234507,-0.5276409,39.0,5,-0.050381526
3.7117102,-6.491516,-0.3918917,37.0,6,-0.05037692
4.9311266,-8.631179,-0.17351182,42.0,7,-0.05037231
1.5190536,-2.66751,-0.822527,45.0,0,-0.05034927
7.049397,-12.384008,0.2487317,40.0,8,-0.050346967
1.6624639,-2.9217138,-0.7760811,41.0,1,-0.05034466
18.60434,-32.70967,1.9721237,18.0,9,-0.05034236
1.8888407,-3.320911,-0.74262863,36.0,2,-0.050340053
2.1560307,-3.7937582,-0.69112754,46.0,3,-0.050335445
2.515242,-4.429426,-0.62543356,42.0,4,-0.050330836
2.9987524,-5.283051,-0.5314757,39.0,5,-0.05032623
3.7451916,-6.6034575,-0.39785796,57.0,6,-0.05032162
4.879278,-8.610065,-0.17274393,31.0,7,-0.050317015
1.5116334,-2.6761603,-0.82356226,45.0,0,-0.050293975
7.162452,-12.685407,0.25428155,47.0,8,-0.05029167
1.6445926,-2.9139225,-0.7724819,39.0,1,-0.050289366
18.695154,-33.137974,1.9940002,23.0,9,-0.05028706
1.8849542,-3.3411634,-0.7456816,47.0,2,-0.05028476
44.428036,-78.78275,7.9130445,63.0,10,-0.050282452
2.1505349,-3.8150275,-0.69363046,44.0,3,-0.05028015
2.4987907,-4.436449,-0.6251898,45.0,4,-0.05027554
2.9763825,-5.2865415,-0.53077847,39.0,5,-0.050270934
3.7250557,-6.621713,-0.398172,72.0,6,-0.050266325
4.860952,-8.647964,-0.17316279,31.0,7,-0.050261717
1.5051154,-2.686477,-0.82511514,43.0,0,-0.050238676
7.1278996,-12.727779,0.25463063,29.0,8,-0.050236374
1.6315553,-2.9145443,-0.77113223,40.0,1,-0.05023407
18.604721,-33.248344,1.9967215,23.0,9,-0.050231766
1.8656102,-3.3340166,-0.74262863,43.0,2,-0.05022946
2.1256373,-3.801821,-0.6898761,46.0,3,-0.050224856
2.4745762,-4.4295483,-0.62299615,53.0,4,-0.050220247
2.9491684,-5.2812433,-0.5292097,40.0,5,-0.05021564
3.7233286,-6.6730466,-0.4004748,62.0,6,-0.05021103
4.90474,-8.797619,-0.17581554,31.0,7,-0.050206423
1.493852,-2.688337,-0.8240799,44.0,0,-0.050183382
7.141687,-12.85747,0.2567249,56.0,8,-0.050181076
1.6327231,-2.9406667,-0.77653104,43.0,1,-0.050178774
18.497278,-33.328804,1.9976636,19.0,9,-0.05017647
1.8596777,-3.3508081,-0.7449184,47.0,2,-0.050174166
2.1123533,-3.8092177,-0.6898761,61.0,3,-0.050169557
2.4639099,-4.4468403,-0.6242148,52.0,4,-0.05016495
2.9249234,-5.2810483,-0.5281638,42.0,5,-0.05016034
3.718387,-6.719206,-0.40246356,50.0,6,-0.050155733
4.827554,-8.730687,-0.17414011,24.0,7,-0.050151125
1.4816613,-2.6884594,-0.822527,46.0,0,-0.050128087
7.15948,-12.996169,0.25899372,38.0,8,-0.05012578
1.6280882,-2.9565902,-0.7792305,40.0,1,-0.05012348
18.686274,-33.934067,2.0302167,19.0,9,-0.050121173
1.8536497,-3.3675983,-0.74720806,46.0,2,-0.05011887
2.09238,-3.8044517,-0.687686,48.0,3,-0.050114263
2.4674926,-4.490208,-0.6290896,52.0,4,-0.050109655
2.9141455,-5.305196,-0.5295583,43.0,5,-0.050105046
3.6997151,-6.7408986,-0.40298688,45.0,6,-0.05010044
4.8745594,-8.885149,-0.1768976,35.0,7,-0.05009583
1.4750475,-2.6987007,-0.8240799,44.0,0,-0.05007279
7.110589,-13.009311,0.2587843,33.0,8,-0.050070487
1.6238811,-2.9722335,-0.78192985,43.0,1,-0.05006818
18.674927,-34.195408,2.04194,34.0,9,-0.05006588
1.833417,-3.3585396,-0.7437735,41.0,2,-0.050063573
2.082591,-3.8165717,-0.6886246,37.0,3,-0.050058965
2.4582906,-4.508824,-0.63055205,45.0,4,-0.050054356
2.9108593,-5.34333,-0.53234726,42.0,5,-0.05004975
3.747067,-6.881177,-0.41062793,52.0,6,-0.05004514
4.871231,-8.95305,-0.17790982,45.0,7,-0.050040536
1.4660903,-2.703577,-0.8240799,43.0,0,-0.050017495
7.174724,-13.236224,0.26279834,33.0,8,-0.05001519
1.6032841,-2.9590368,-0.77698094,37.0,1,-0.050012887
18.60491,-34.351715,2.0473828,24.0,9,-0.05001058
1.8250749,-3.3697798,-0.7449184,36.0,2,-0.05000828
47.0403,-86.89045,8.644455,63.0,10,-0.050005972
2.0598547,-3.8064446,-0.685496,32.0,3,-0.05000367
2.4453692,-4.522616,-0.6312833,42.0,4,-0.049999062
2.8978605,-5.3617177,-0.53321886,40.0,5,-0.049994454
3.7334635,-6.9135456,-0.41177934,42.0,6,-0.049989846
4.843748,-8.977039,-0.17804946,45.0,7,-0.049985237
1.4557289,-2.7069767,-0.82356226,45.0,0,-0.049962196
7.2155833,-13.423233,0.26600957,31.0,8,-0.049959894
1.6003243,-2.9783483,-0.78058016,41.0,1,-0.04995759
18.737211,-34.886242,2.0753303,25.0,9,-0.049955286
1.815159,-3.3795893,-0.7456816,37.0,2,-0.04995298
2.0521595,-3.8240552,-0.6873731,33.0,3,-0.049948372
2.4239388,-4.520627,-0.6298208,42.0,4,-0.049943767
2.9045398,-5.419214,-0.53792524,37.0,5,-0.04993916
3.7677667,-7.035699,-0.418269,55.0,6,-0.04993455
4.7944574,-8.960392,-0.17738625,38.0,7,-0.049929943
1.4426349,-2.7052233,-0.8214917,46.0,0,-0.049906902
7.173386,-13.457162,0.26618412,26.0,8,-0.049904596
1.587169,-2.9787567,-0.7792305,32.0,1,-0.049902294
18.711082,-35.13124,2.0860066,30.0,9,-0.049899988
1.8135026,-3.4049656,-0.7498794,38.0,2,-0.049897686
2.0619984,-3.8747911,-0.69519484,34.0,3,-0.049893077
2.4146683,-4.54133,-0.631527,40.0,4,-0.04988847
2.8818653,-5.422282,-0.537228,39.0,5,-0.04988386
3.7385008,-7.039988,-0.41774565,39.0,6,-0.049879253
4.758464,-8.968241,-0.17721173,45.0,7,-0.049874645
1.4340863,-2.71195,-0.8220093,44.0,0,-0.049851608
7.2684093,-13.750843,0.27148965,39.0,8,-0.0498493
1.5731202,-2.9773865,-0.77743083,34.0,1,-0.049847
18.715189,-35.43653,2.1002421,30.0,9,-0.049844693
1.8061903,-3.4199555,-0.7517875,39.0,2,-0.04984239
39.62424,-75.05878,7.425669,63.0,10,-0.049840085
2.0337098,-3.8540123,-0.69018894,34.0,3,-0.049837783
2.3895428,-4.5321712,-0.6290896,40.0,4,-0.049833175
2.8926454,-5.4887114,-0.54280597,39.0,5,-0.049828567
3.770669,-7.160795,-0.42413062,44.0,6,-0.04982396
4.7187495,-8.968869,-0.1768976,38.0,7,-0.04981935
1.4246111,-2.7169394,-0.8220093,44.0,0,-0.04979631
7.328979,-13.983357,0.2755735,54.0,8,-0.049794007
1.5717611,-3.0001216,-0.78192985,33.0,1,-0.0497917
18.63771,-35.590107,2.105476,30.0,9,-0.0497894
1.7924199,-3.4227605,-0.75102425,42.0,2,-0.049787093
2.0294027,-3.8785903,-0.69331765,34.0,3,-0.049782485
2.3801458,-4.5527987,-0.6307958,42.0,4,-0.049777877
2.8836186,-5.5181994,-0.5447234,39.0,5,-0.04977327
3.747499,-7.1774545,-0.42433998,49.0,6,-0.04976866
4.7133117,-9.034927,-0.17787492,35.0,7,-0.049764052
1.4169006,-2.7253237,-0.8230446,43.0,0,-0.049741015
7.2386274,-13.929007,0.2740028,39.0,8,-0.04973871
1.563974,-3.010778,-0.78327954,39.0,1,-0.049736407
18.671667,-35.959827,2.1234794,21.0,9,-0.0497341
1.7804613,-3.4289963,-0.75102425,42.0,2,-0.0497318
2.005845,-3.8663628,-0.6898761,35.0,3,-0.04972719
2.35145,-4.536406,-0.6273834,42.0,4,-0.049722582
2.897337,-5.5919166,-0.5509986,40.0,5,-0.049717974
3.7141578,-7.1745286,-0.42339793,49.0,6,-0.049713366
44.292877,-85.59583,22.250359,61.0,14,-0.049711064
4.717575,-9.120596,-0.17923622,43.0,7,-0.049708758
1.4064938,-2.7285361,-0.822527,45.0,0,-0.049685717
7.3319287,-14.229718,0.279413,38.0,8,-0.049683414
1.5543472,-3.0179515,-0.7837295,40.0,1,-0.04968111
18.672188,-36.26984,2.137924,26.0,9,-0.049678806
1.7693796,-3.4369361,-0.7514059,43.0,2,-0.0496765
1.9796867,-3.848748,-0.685496,33.0,3,-0.049671892
2.3437672,-4.560477,-0.6295771,40.0,4,-0.049667284
2.8750684,-5.5966797,-0.55047566,42.0,5,-0.04966268
3.7128043,-7.233648,-0.4261194,55.0,6,-0.04965807
44.185966,-86.124435,22.347536,62.0,14,-0.049655765
4.693009,-9.151242,-0.17951545,32.0,7,-0.049653463
1.3952025,-2.7299888,-0.8214917,46.0,0,-0.049630422
6.9583564,-13.6212635,0.2669869,22.0,8,-0.049628116
1.5402584,-3.0164163,-0.78192985,40.0,1,-0.049625814
18.64716,-36.53404,2.1496472,26.0,9,-0.049623508
1.756479,-3.4413428,-0.75102425,39.0,2,-0.049621206
48.159355,-94.39584,9.271279,63.0,10,-0.049618904
1.987778,-3.8978693,-0.6930048,45.0,3,-0.049616598
2.3323393,-4.5774736,-0.6307958,43.0,4,-0.04961199
2.8356218,-5.5676227,-0.5466408,43.0,5,-0.04960738
3.7346334,-7.3391266,-0.43156233,55.0,6,-0.049602773
44.150127,-86.79923,22.48251,63.0,14,-0.04960047
4.711789,-9.267391,-0.18147013,36.0,7,-0.049598165
1.3900305,-2.7434587,-0.8240799,49.0,0,-0.049575124
6.758983,-13.345765,0.2611229,1.0,8,-0.04957282
1.5482031,-3.0582862,-0.7913778,45.0,1,-0.04957052
18.757584,-37.06938,2.1772807,22.0,9,-0.049568214
1.74091,-3.4404461,-0.7494978,38.0,2,-0.04956591
1.9402913,-3.8377945,-0.68111575,42.0,3,-0.049561303
2.321717,-4.5962186,-0.6322582,42.0,4,-0.049556695
2.8197618,-5.584601,-0.54733807,42.0,5,-0.049552087
3.6289294,-7.193415,-0.42224655,36.0,6,-0.04954748
43.353752,-85.97492,22.229664,61.0,14,-0.049545173
4.7424154,-9.408778,-0.18391345,32.0,7,-0.04954287
1.3821796,-2.7517467,-0.82511514,49.0,0,-0.04951983
7.423878,-14.786446,0.28880242,54.0,8,-0.049517527
1.5357699,-3.0601883,-0.790478,48.0,1,-0.04951522
18.635242,-37.14891,2.1781182,16.0,9,-0.04951292
1.7253692,-3.4394825,-0.7479713,38.0,2,-0.049510613
1.9366196,-3.86397,-0.6845573,32.0,3,-0.049506005
2.3216588,-4.6362443,-0.63664556,43.0,4,-0.049501397
2.820762,-5.6353884,-0.5513472,40.0,5,-0.04949679
3.6261308,-7.2506957,-0.4248633,55.0,6,-0.04949218
43.598843,-87.216896,22.511303,22.0,14,-0.049489878
4.735465,-9.477152,-0.1849257,36.0,7,-0.049487572
1.3708436,-2.753096,-0.8240799,49.0,0,-0.049464535
7.39182,-14.851655,0.28957033,46.0,8,-0.04946223
1.5146625,-3.0445936,-0.7850792,37.0,1,-0.049459927
18.573929,-37.35144,2.1861777,11.0,9,-0.04945762
1.72122,-3.4613056,-0.7514059,32.0,2,-0.04945532
1.9310304,-3.886628,-0.6873731,30.0,3,-0.04945071
2.3072264,-4.6478763,-0.63713294,42.0,4,-0.049446102
2.8019595,-5.6469846,-0.5515215,40.0,5,-0.049441494
3.6682205,-7.399306,-0.4328184,52.0,6,-0.049436886
43.30278,-87.38602,22.5158,22.0,14,-0.04943458
4.669514,-9.427323,-0.18363422,29.0,7,-0.049432278
1.3680654,-2.7717228,-0.82822096,49.0,0,-0.049409237
7.3806334,-14.959858,0.29117593,40.0,8,-0.049406935
1.5135064,-3.0690875,-0.7900281,44.0,1,-0.04940463
18.348948,-37.224365,2.174978,5.0,9,-0.049402326
1.7039192,-3.456727,-0.7491161,36.0,2,-0.04940002
1.9349068,-3.9287875,-0.69363046,35.0,3,-0.049395412
2.2936172,-4.6612453,-0.6378642,40.0,4,-0.049390804
2.7883863,-5.669246,-0.5527417,39.0,5,-0.049386196
3.6635108,-7.4550867,-0.43533054,52.0,6,-0.04938159
4.718539,-9.610501,-0.18688037,37.0,7,-0.049376983
1.3583821,-2.7764814,-0.82822096,42.0,0,-0.049353942
7.370536,-15.071756,0.2928514,54.0,8,-0.049351636
1.5044961,-3.0778534,-0.79092795,43.0,1,-0.049349334
1.6806381,-3.4397223,-0.7441551,41.0,2,-0.049344726
1.9324464,-3.9585948,-0.69769776,42.0,3,-0.049340118
2.2808132,-4.67636,-0.6388391,40.0,4,-0.04933551
2.7667158,-5.6776366,-0.55256736,35.0,5,-0.0493309
3.640963,-7.475011,-0.4357492,57.0,6,-0.049326293
4.7488427,-9.758173,-0.18942842,45.0,7,-0.049321685
1.3389279,-2.762319,-0.822527,45.0,0,-0.049298644
7.296947,-15.054206,0.29201365,48.0,8,-0.04929634
1.4937428,-3.0830867,-0.79092795,43.0,1,-0.04929404
18.60572,-38.419304,2.237153,6.0,9,-0.049291734
