x,y,z,intensity,ring,time
32.638023,49.38554,11.506547,39.0,13,-0.090878054
3.360643,5.083158,-0.31935403,37.0,6,-0.09087575
21.391699,32.343887,8.952601,7.0,14,-0.09087345
4.4004188,6.650829,-0.13920039,28.0,7,-0.09087115
21.624828,32.671547,10.498219,10.0,15,-0.090868846
1.4901776,2.2454476,-0.7221052,41.0,0,-0.0908481
6.4260516,9.679316,0.20279697,43.0,8,-0.0908458
1.6247464,2.4463665,-0.6780025,50.0,1,-0.0908435
12.101696,18.221416,1.146367,37.0,9,-0.0908412
1.8002449,2.7095866,-0.632341,29.0,2,-0.09083889
33.233612,50.001686,5.252702,23.0,10,-0.090836585
2.0080903,3.0201316,-0.5744274,20.0,3,-0.09083428
2.4582555,3.6957731,-0.5449997,59.0,4,-0.09082967
32.33781,48.598682,9.24559,18.0,12,-0.09082737
2.7291353,4.099913,-0.43089798,31.0,5,-0.090825066
32.945133,49.47395,11.553866,39.0,13,-0.090822764
3.3994038,5.1029787,-0.3213428,39.0,6,-0.09082046
21.525858,32.313313,8.96385,27.0,14,-0.09081815
4.4091406,6.616232,-0.13878153,28.0,7,-0.09081585
21.619457,32.42928,10.443349,21.0,15,-0.09081355
1.493321,2.2340696,-0.7200346,40.0,0,-0.09079281
6.3469567,9.491723,0.19930647,39.0,8,-0.0907905
1.6469351,2.4620223,-0.68385124,53.0,1,-0.0907882
11.656778,17.425852,1.0987412,19.0,9,-0.0907859
1.8299654,2.7346034,-0.6395918,28.0,2,-0.090783596
2.031285,3.033151,-0.57818186,25.0,3,-0.090778984
2.4704986,3.6876004,-0.5449997,59.0,4,-0.09077438
32.439392,48.402576,9.228696,18.0,12,-0.09077208
2.7870977,4.1570344,-0.43787044,39.0,5,-0.09076977
23.623371,35.22163,8.243712,19.0,13,-0.090767466
3.406291,5.076752,-0.32040074,43.0,6,-0.09076516
21.68066,32.312958,8.983645,11.0,14,-0.09076286
4.358619,6.4936504,-0.13651273,20.0,7,-0.09076055
22.347193,33.28121,10.7415085,23.0,15,-0.09075825
1.4996419,2.227503,-0.719517,35.0,0,-0.090737514
6.3694644,9.457354,0.19902724,48.0,8,-0.09073521
1.6561798,2.458163,-0.6843011,50.0,1,-0.0907329
11.656136,17.293968,1.0929842,38.0,9,-0.0907306
1.807202,2.6813083,-0.62852484,30.0,2,-0.0907283
33.165752,49.188766,5.1902986,22.0,10,-0.090725996
2.068947,3.0673404,-0.5860036,29.0,3,-0.09072369
2.4822445,3.6773098,-0.544756,42.0,4,-0.09071908
32.52194,48.161346,9.204292,17.0,12,-0.09071678
2.7681303,4.0977526,-0.4326411,35.0,5,-0.09071448
23.774086,35.193546,8.255543,19.0,13,-0.09071217
3.4208724,5.062118,-0.3201914,41.0,6,-0.090709865
23.880112,35.32388,9.843858,4.0,14,-0.09070756
4.452954,6.58441,-0.13874663,28.0,7,-0.09070526
1.4991198,2.2092023,-0.7153759,37.0,0,-0.090682216
6.2250314,9.173619,0.19351228,50.0,8,-0.090679914
1.6570884,2.4410808,-0.6811518,44.0,1,-0.09067761
11.54252,16.997068,1.07676,39.0,9,-0.09067531
1.8236387,2.6844091,-0.6308146,29.0,2,-0.090673
33.38612,49.126213,5.196574,22.0,10,-0.0906707
2.0735114,3.0499356,-0.58412635,25.0,3,-0.090668395
32.76234,48.190254,7.1549497,15.0,11,-0.09066609
2.4727395,3.6357932,-0.5398812,41.0,4,-0.09066378
32.614285,47.936478,9.183017,17.0,12,-0.09066148
2.7644815,4.061711,-0.4298521,37.0,5,-0.09065918
24.013435,35.268436,8.293704,19.0,13,-0.09065688
3.3910542,4.978565,-0.31569052,30.0,6,-0.09065457
4.4669013,6.5556073,-0.1384674,34.0,7,-0.09064996
23.179623,34.005535,11.027245,12.0,15,-0.09064766
1.518814,2.2214992,-0.7210699,41.0,0,-0.090626925
6.256353,9.147443,0.19344248,47.0,8,-0.090624616
1.6550208,2.4189074,-0.6766528,44.0,1,-0.09062231
11.463064,16.753923,1.0638855,30.0,9,-0.09062001
1.8207983,2.660207,-0.6266168,41.0,2,-0.09061771
33.0914,48.328766,5.1244087,21.0,10,-0.0906154
2.1868458,3.1926122,-0.61291033,30.0,3,-0.0906131
32.739006,47.77837,7.1115646,15.0,11,-0.090610795
2.483803,3.623431,-0.5393937,53.0,4,-0.09060849
2.7741365,4.045463,-0.42915487,35.0,5,-0.09060388
3.3699896,4.9107065,-0.31213167,36.0,6,-0.090599276
22.47566,32.739,9.168105,4.0,14,-0.09059697
4.385636,6.388303,-0.13525616,22.0,7,-0.090594664
22.85851,33.284256,10.819154,23.0,15,-0.09059236
1.5287516,2.2193654,-0.7221052,34.0,0,-0.09057163
6.2650976,9.095357,0.19277929,49.0,8,-0.090569325
1.6519763,2.397359,-0.6721538,44.0,1,-0.090567015
11.198409,16.245152,1.0340539,21.0,9,-0.09056471
1.8523645,2.686159,-0.63424915,34.0,2,-0.09056241
33.0721,47.940712,5.0954733,21.0,10,-0.09056011
2.0987115,3.0422537,-0.5853778,29.0,3,-0.0905578
32.80708,47.53883,7.0920653,15.0,11,-0.0905555
2.493549,3.6119082,-0.53890634,53.0,4,-0.090553194
2.7871077,4.0341163,-0.42898056,34.0,5,-0.09054858
31.94405,46.236465,10.923816,36.0,13,-0.09054628
3.4112372,4.935652,-0.31443447,39.0,6,-0.09054398
22.619577,32.715576,9.182503,12.0,14,-0.090541676
4.43407,6.410783,-0.13605896,30.0,7,-0.09053937
23.93747,34.595913,11.272605,26.0,15,-0.090537064
1.5350024,2.212696,-0.72158754,35.0,0,-0.09051633
6.3253093,9.114505,0.1936519,42.0,8,-0.09051403
1.6647781,2.397982,-0.67395335,44.0,1,-0.090511724
11.138844,16.038635,1.0233774,30.0,9,-0.090509415
1.8567832,2.673551,-0.6327227,32.0,2,-0.09050711
33.255875,47.866795,5.099308,21.0,10,-0.09050481
2.0676036,2.9748938,-0.5738017,27.0,3,-0.09050251
32.422092,46.6319,6.9736085,14.0,11,-0.0905002
2.4948075,3.5868847,-0.5364689,53.0,4,-0.090497896
24.106735,34.646355,6.685071,8.0,12,-0.090495594
2.7841003,3.9998333,-0.42636588,35.0,5,-0.09049329
24.01193,34.497223,8.17006,18.0,13,-0.09049099
3.3953488,4.8761806,-0.31139898,33.0,6,-0.09048868
22.560968,32.388584,9.112767,8.0,14,-0.09048638
4.44156,6.373936,-0.1356052,33.0,7,-0.090484075
23.839354,34.198345,11.170113,12.0,15,-0.09048177
1.5309249,2.1896396,-0.7158935,34.0,0,-0.09046103
6.2413588,8.926843,0.19012651,49.0,8,-0.09045873
1.6630871,2.3777835,-0.66990423,41.0,1,-0.090456426
10.875292,15.54309,0.9941739,28.0,9,-0.090454124
1.8733239,2.6763783,-0.6350123,34.0,2,-0.09045182
33.355682,47.636864,5.0878034,21.0,10,-0.09044951
2.179357,3.1112926,-0.601647,27.0,3,-0.09044721
2.513008,3.5862832,-0.5376876,49.0,4,-0.090442605
24.161774,34.468178,6.666925,16.0,12,-0.090440296
2.8186352,4.019454,-0.4295035,35.0,5,-0.09043799
23.847313,33.994328,8.071603,17.0,13,-0.09043569
3.4533525,4.9209247,-0.3150625,46.0,6,-0.09043339
22.661634,32.28014,9.105569,8.0,14,-0.09043108
4.4408045,6.3256593,-0.13490711,38.0,7,-0.09042878
22.970434,32.707897,10.7094145,11.0,15,-0.090426475
1.537447,2.1827028,-0.7153759,31.0,0,-0.09040574
6.263667,8.889197,0.18981238,50.0,8,-0.09040344
1.6762813,2.3780437,-0.6717038,39.0,1,-0.09040113
10.721207,15.209557,0.9752283,23.0,9,-0.090398826
1.8656844,2.6457555,-0.6292881,42.0,2,-0.09039652
33.536682,47.541313,5.09007,43.0,10,-0.09039422
2.1423693,3.035879,-0.5885065,24.0,3,-0.09039191
32.41608,45.918674,6.901461,14.0,11,-0.09038961
2.512919,3.5596502,-0.53500646,48.0,4,-0.09038731
24.099615,34.125458,6.6168656,16.0,12,-0.090385005
2.8234506,3.996573,-0.428109,35.0,5,-0.090382695
23.750553,33.606247,7.999095,17.0,13,-0.09038039
3.4128575,4.827298,-0.30982888,36.0,6,-0.09037809
22.95528,32.46897,9.180252,12.0,14,-0.09037579
4.4466877,6.2872653,-0.13441843,38.0,7,-0.09037348
22.99075,32.495037,10.665934,11.0,15,-0.09037118
1.5424408,2.1744413,-0.7143406,31.0,0,-0.09035044
6.17507,8.702036,0.18625209,43.0,8,-0.09034814
1.6796465,2.366115,-0.66990423,37.0,1,-0.09034584
10.6906595,15.059914,0.9679013,31.0,9,-0.09034353
1.9005919,2.6763706,-0.6380653,36.0,2,-0.090341225
33.58224,47.272278,5.0731616,21.0,10,-0.09033892
2.1432712,3.0158758,-0.5860036,29.0,3,-0.09033662
32.575066,45.820637,6.902924,14.0,11,-0.09033431
2.521258,3.5464442,-0.53427523,44.0,4,-0.09033201
24.243563,34.08881,6.6253133,24.0,12,-0.09032971
2.8320694,3.9806936,-0.42741176,37.0,5,-0.090327404
23.877794,33.5497,8.004437,17.0,13,-0.090325095
3.402205,4.778532,-0.30742142,40.0,6,-0.09032279
23.855143,33.505497,9.495634,30.0,14,-0.09032049
4.475635,6.283886,-0.13466278,30.0,7,-0.09031819
23.064741,32.37142,10.650404,11.0,15,-0.09031588
1.5518885,2.1724586,-0.7153759,31.0,0,-0.09029514
6.130648,8.57901,0.18405308,35.0,8,-0.09029284
1.6716169,2.3383381,-0.6636056,36.0,1,-0.09029054
10.722255,14.993259,0.9660171,34.0,9,-0.09028824
1.9345816,2.7051852,-0.64646095,32.0,2,-0.09028593
2.1762524,3.04088,-0.59226096,24.0,3,-0.09028132
2.5555825,3.5682862,-0.53890634,48.0,4,-0.09027671
24.50161,34.19828,6.6631703,8.0,12,-0.09027441
2.8696213,4.005293,-0.4310723,33.0,5,-0.090272106
24.153622,33.700115,8.059391,17.0,13,-0.090269804
3.4133766,4.7607317,-0.30700275,35.0,6,-0.090267494
24.009428,33.47428,9.510481,35.0,14,-0.09026519
4.414775,6.1528673,-0.13218452,23.0,7,-0.09026289
23.131405,32.22637,10.629181,33.0,15,-0.09026059
1.5617195,2.1701639,-0.7164112,31.0,0,-0.09023985
6.13252,8.518606,0.18321536,52.0,8,-0.09023754
1.7014062,2.3625348,-0.6721538,43.0,1,-0.09023524
1.9371268,2.6888585,-0.6441712,30.0,2,-0.09023064
32.86647,45.60403,4.918024,20.0,10,-0.09022833
2.1903188,3.0380726,-0.59319955,28.0,3,-0.090226024
32.537846,45.114838,6.8298025,14.0,11,-0.09022372
2.5668619,3.5577328,-0.53866255,45.0,4,-0.09022142
24.396564,33.8018,6.6024737,8.0,12,-0.09021911
2.8777559,3.9871728,-0.43020076,37.0,5,-0.09021681
23.77692,32.93116,7.895295,16.0,13,-0.090214506
3.4486861,4.7746925,-0.3086775,38.0,6,-0.0902122
24.11815,33.379208,9.507332,4.0,14,-0.0902099
4.3940525,6.079077,-0.13092795,34.0,7,-0.09020759
24.752676,34.232204,11.319192,13.0,15,-0.09020529
1.5386704,2.1224694,-0.70243496,32.0,0,-0.090184554
6.1962614,8.544095,0.1842276,56.0,8,-0.09018225
1.7119321,2.3597357,-0.67305356,40.0,1,-0.09017994
10.657515,14.6903715,0.9511538,33.0,9,-0.09017764
1.8946091,2.61058,-0.6269984,28.0,2,-0.09017534
25.57149,35.221996,3.8080087,11.0,10,-0.090173036
2.1324227,2.9361072,-0.5747403,24.0,3,-0.090170726
32.51076,44.747246,6.7912917,13.0,11,-0.090168424
2.578097,3.547146,-0.5384188,48.0,4,-0.09016612
24.87319,34.22246,6.700715,8.0,12,-0.09016382
2.8834536,3.9658237,-0.42898056,38.0,5,-0.09016152
23.633043,32.49232,7.809812,15.0,13,-0.09015921
3.4559302,4.749706,-0.30784014,38.0,6,-0.090156905
23.826244,32.73392,9.347166,4.0,14,-0.0901546
4.381236,6.019204,-0.12995063,31.0,7,-0.0901523
24.861502,34.143692,11.3171215,26.0,15,-0.09014999
1.5437907,2.1139653,-0.7013996,40.0,0,-0.090129256
6.016995,8.239278,0.17808436,48.0,8,-0.090126954
1.7197484,2.3540452,-0.67305356,32.0,1,-0.09012465
1.9743887,2.7006283,-0.6502771,46.0,2,-0.09012004
25.46141,34.814095,3.773495,23.0,10,-0.09011774
2.18063,2.981636,-0.585065,28.0,3,-0.090115435
32.658985,44.63918,6.7912917,13.0,11,-0.09011313
2.5910175,3.5401797,-0.53866255,49.0,4,-0.09011082
23.508146,32.108044,6.3027453,28.0,12,-0.09010852
2.9184716,3.984666,-0.43211815,33.0,5,-0.09010622
24.863613,33.946945,8.179218,18.0,13,-0.09010392
3.4657586,4.7301645,-0.30731675,31.0,6,-0.09010161
24.714598,33.718796,9.65175,13.0,14,-0.090099305
4.4104986,6.0151606,-0.13019496,39.0,7,-0.090097
25.049078,34.150166,11.34818,13.0,15,-0.0900947
1.5404924,2.094827,-0.6967409,46.0,0,-0.090073965
5.9568486,8.097414,0.17546651,44.0,8,-0.090071656
1.7164041,2.3323328,-0.66855454,40.0,1,-0.09006935
9.662239,13.1295185,0.85433227,6.0,9,-0.09006705
1.9553999,2.6561208,-0.6411182,32.0,2,-0.09006475
25.26244,34.30274,3.7271283,22.0,10,-0.09006244
2.1675909,2.942199,-0.5788076,39.0,3,-0.09006014
26.172298,35.512226,5.4166055,8.0,11,-0.090057835
2.5362148,3.4400392,-0.5247694,37.0,4,-0.09005553
23.670753,32.10624,6.317763,21.0,12,-0.09005322
2.9091988,3.9445012,-0.42880625,35.0,5,-0.09005092
25.331627,34.333897,8.293704,39.0,13,-0.09004862
3.471576,4.703574,-0.3063747,29.0,6,-0.09004632
24.300842,32.912743,9.445245,21.0,14,-0.09004401
4.423293,5.9908504,-0.12998553,39.0,7,-0.090041704
25.848557,34.996162,11.657728,14.0,15,-0.0900394
1.5638947,2.1111689,-0.7039878,44.0,0,-0.09001867
5.9467697,8.027801,0.17438444,54.0,8,-0.090016365
1.7044044,2.3000119,-0.6609062,41.0,1,-0.090014055
9.937566,13.405375,0.87453395,13.0,9,-0.09001175
1.9459493,2.6240473,-0.6350123,43.0,2,-0.09000945
25.256203,34.04472,3.708651,22.0,10,-0.09000715
2.2667837,3.055567,-0.6025856,28.0,3,-0.09000484
26.28518,35.41887,5.4156303,8.0,11,-0.09000254
2.5428762,3.4252338,-0.5237945,40.0,4,-0.090000235
23.936977,32.23116,6.358749,14.0,12,-0.08999793
2.8611634,3.8511584,-0.41974208,37.0,5,-0.08999562
24.738165,33.29785,8.063208,17.0,13,-0.08999332
3.4120991,4.5910454,-0.29978037,33.0,6,-0.08999102
24.858667,33.435627,9.618907,13.0,14,-0.089988716
4.366607,5.871079,-0.1277167,32.0,7,-0.08998641
25.758383,34.62053,11.562483,28.0,15,-0.089984104
1.5908939,2.1320193,-0.7127877,38.0,0,-0.09025121
6.028784,8.076461,0.17592026,60.0,8,-0.090248905
1.6988316,2.2750115,-0.6555073,37.0,1,-0.0902466
9.975871,13.354464,0.8735919,16.0,9,-0.09024429
1.96097,2.6251044,-0.63692045,42.0,2,-0.09024199
24.7547,33.126442,3.618009,10.0,10,-0.09023969
2.2519464,3.0124311,-0.5957025,27.0,3,-0.09023739
32.94629,44.056297,6.7547307,13.0,11,-0.09023508
2.4555266,3.2823706,-0.5033204,45.0,4,-0.090232775
24.122404,32.23336,6.376582,7.0,12,-0.09023047
2.878171,3.845932,-0.42026496,45.0,5,-0.09022817
25.63661,34.244213,8.315075,19.0,13,-0.09022586
3.449255,4.6056857,-0.3015598,33.0,6,-0.09022356
25.957848,34.648125,9.995026,19.0,14,-0.090221256
4.395296,5.8646326,-0.12792614,30.0,7,-0.090218954
29.081186,38.788883,12.9901285,19.0,15,-0.090216644
1.5878803,2.1125543,-0.7081289,37.0,0,-0.09019591
6.08338,8.0905285,0.17668816,60.0,8,-0.09019361
1.7208192,2.2877564,-0.6609062,39.0,1,-0.090191305
9.781055,12.998777,0.85255283,22.0,9,-0.090189
1.9748437,2.624518,-0.6384469,41.0,2,-0.09018669
2.2980952,3.0518932,-0.6050886,43.0,3,-0.09018209
25.894184,34.375244,5.284255,16.0,11,-0.090179786
2.5529854,3.3879251,-0.5208696,35.0,4,-0.09017748
24.483286,32.47864,6.441972,15.0,12,-0.090175174
2.8975744,3.8438175,-0.42113656,38.0,5,-0.09017287
25.607025,33.957024,8.266991,19.0,13,-0.09017057
3.432836,4.5505667,-0.29873365,31.0,6,-0.09016826
33.053745,43.800175,12.668344,8.0,14,-0.09016596
4.3795915,5.8013783,-0.12687899,32.0,7,-0.090163656
26.28255,34.80223,11.68568,14.0,15,-0.09016135
1.5835842,2.0915964,-0.70295256,37.0,0,-0.09014062
6.1526284,8.123446,0.17787492,60.0,8,-0.09013831
1.7111423,2.2584364,-0.6541577,34.0,1,-0.09013601
9.679373,12.775237,0.8399922,23.0,9,-0.090133704
1.949603,2.572234,-0.62738,30.0,2,-0.0901314
2.2860537,3.013949,-0.59914404,34.0,3,-0.09012679
25.97083,34.227715,5.2754807,49.0,11,-0.09012449
2.5275884,3.3299782,-0.5133137,28.0,4,-0.090122186
24.959888,32.883476,6.538648,15.0,12,-0.090119876
2.949531,3.8844564,-0.4267145,42.0,5,-0.090117574
25.666033,33.789257,8.24791,19.0,13,-0.09011527
3.459572,4.552871,-0.2996757,42.0,6,-0.09011297
35.345676,46.498775,13.484467,9.0,14,-0.09011067
4.406068,5.796374,-0.12708843,30.0,7,-0.09010836
26.360388,34.665676,11.669116,14.0,15,-0.090106055
1.5873606,2.0814478,-0.7013996,34.0,0,-0.09008532
6.071612,7.961482,0.1747684,62.0,8,-0.09008302
1.7127117,2.2450032,-0.65190816,41.0,1,-0.09008071
9.776015,12.809641,0.8444931,31.0,9,-0.090078406
1.9609519,2.5685341,-0.62814325,34.0,2,-0.090076104
21.494099,28.143656,3.0982122,7.0,10,-0.0900738
2.2792497,2.9843733,-0.59476393,33.0,3,-0.09007149
26.078176,34.133507,5.274262,16.0,11,-0.09006919
2.4976335,3.2679524,-0.5050266,37.0,4,-0.09006689
25.06973,32.789864,6.537397,15.0,12,-0.090064585
2.9328136,3.8345718,-0.42235672,33.0,5,-0.09006228
3.4880023,4.558821,-0.3008271,45.0,6,-0.09005767
25.794468,33.7012,9.797969,4.0,14,-0.09005537
4.4408636,5.80001,-0.12750728,30.0,7,-0.09005307
28.25972,36.895428,12.45282,17.0,15,-0.09005076
1.5754287,2.0516572,-0.69311744,38.0,0,-0.09003002
6.118859,7.965611,0.17532688,50.0,8,-0.09002772
1.7169751,2.234376,-0.6505585,43.0,1,-0.09002542
9.723281,12.6487665,0.8361193,23.0,9,-0.09002311
1.891685,2.4608445,-0.60333806,38.0,2,-0.090020806
21.1768,27.53838,3.039295,7.0,10,-0.0900185
2.2161825,2.8808904,-0.5756789,30.0,3,-0.0900162
32.693462,42.48403,6.582164,13.0,11,-0.0900139
2.51387,3.2655056,-0.5060016,42.0,4,-0.09001159
25.65651,33.31566,6.660042,16.0,12,-0.09000929
2.9540217,3.8358753,-0.4235769,37.0,5,-0.090006985
25.890629,33.607563,8.246384,19.0,13,-0.09000468
3.523402,4.571929,-0.30250186,42.0,6,-0.09000237
26.01428,33.74367,9.836659,4.0,14,-0.09000007
4.365824,5.660964,-0.12478471,21.0,7,-0.08999777
28.128736,36.46005,12.33894,16.0,15,-0.089995466
1.5849452,2.049201,-0.6941527,40.0,0,-0.089974724
6.0132422,7.7718143,0.17152224,54.0,8,-0.08997242
1.7343069,2.240697,-0.6541577,40.0,1,-0.08997012
9.695235,12.521573,0.82994366,31.0,9,-0.08996782
1.9158894,2.474406,-0.60829914,51.0,2,-0.089965515
20.326033,26.241978,2.9040291,6.0,10,-0.089963205
2.270991,2.9309125,-0.58725506,27.0,3,-0.0899609
25.93639,33.461117,5.1982155,8.0,11,-0.0899586
2.4632163,3.1767051,-0.4935709,36.0,4,-0.0899563
25.932455,33.431934,6.70134,17.0,12,-0.08995399
2.977162,3.8381355,-0.4249714,34.0,5,-0.08995169
25.764673,33.203663,8.169297,18.0,13,-0.089949384
3.5026002,4.5122695,-0.2993617,38.0,6,-0.08994708
29.332659,37.774597,11.041498,23.0,14,-0.08994477
4.4665236,5.749917,-0.12708843,32.0,7,-0.08994247
28.201317,36.29146,12.315128,16.0,15,-0.08994017
1.6003988,2.0543242,-0.69777614,37.0,0,-0.08991943
6.067375,7.785479,0.17229016,54.0,8,-0.08991713
1.7612889,2.259219,-0.6613561,33.0,1,-0.08991482
9.609915,12.322288,0.8189531,30.0,9,-0.08991252
1.9365878,2.4831848,-0.6121153,47.0,2,-0.08991022
20.275343,25.988651,2.883809,6.0,10,-0.089907914
2.2204416,2.8451042,-0.57161164,29.0,3,-0.089905605
32.969715,42.22972,6.578264,13.0,11,-0.0899033
2.52683,3.235361,-0.5040516,43.0,4,-0.089901
26.059952,33.355213,6.7041564,25.0,12,-0.0898987
2.9623296,3.7916086,-0.42096224,33.0,5,-0.08989639
26.516327,33.927174,8.370028,20.0,13,-0.089894086
3.5097153,4.489004,-0.298629,38.0,6,-0.089891784
4.426187,5.657121,-0.12537809,23.0,7,-0.08988717
28.375446,36.25366,12.335834,16.0,15,-0.08988487
1.5920572,2.0289671,-0.6910469,41.0,0,-0.089864135
5.977219,7.614816,0.16897419,48.0,8,-0.08986183
1.7523148,2.2315998,-0.6550575,43.0,1,-0.08985953
9.622027,12.2494,0.81633633,31.0,9,-0.08985722
1.937968,2.467146,-0.60982555,29.0,2,-0.08985492
19.70858,25.081152,2.7907267,6.0,10,-0.089852616
2.2328,2.8404427,-0.5722374,32.0,3,-0.089850314
2.5454726,3.2358818,-0.5055141,33.0,4,-0.0898457
32.368454,41.13298,8.29009,14.0,12,-0.0898434
2.9447432,3.7421021,-0.41660443,30.0,5,-0.0898411
32.320248,41.056973,10.156763,32.0,13,-0.08983879
3.5500782,4.5081067,-0.30072245,38.0,6,-0.089836486
30.57004,38.805775,11.405018,6.0,14,-0.08983418
4.4087768,5.5945168,-0.124330945,28.0,7,-0.08983188
28.61902,36.30307,12.386562,33.0,15,-0.08982958
1.6027242,2.027944,-0.6925998,41.0,0,-0.08980884
5.9628353,7.5421405,0.16782233,48.0,8,-0.089806534
1.7540491,2.2178276,-0.65280795,50.0,1,-0.08980423
8.902606,11.252448,0.75196314,12.0,9,-0.08980193
1.938042,2.449588,-0.60715425,29.0,2,-0.08979962
19.4399,24.562271,2.7405252,11.0,10,-0.08979732
2.2672246,2.8636065,-0.5784947,33.0,3,-0.089795016
2.566614,3.2394245,-0.507464,32.0,4,-0.089790404
32.42105,40.905174,8.266936,14.0,12,-0.0897881
2.9045734,3.6646588,-0.40910906,33.0,5,-0.0897858
28.230879,35.605724,8.832549,23.0,13,-0.0897835
3.5434513,4.4675217,-0.29883832,35.0,6,-0.089781195
30.763462,38.7721,11.426614,6.0,14,-0.089778885
4.417091,5.5649953,-0.12401681,30.0,7,-0.08977658
28.74316,36.199932,12.385528,33.0,15,-0.08977428
1.6158085,2.029895,-0.695188,39.0,0,-0.089753546
5.971689,7.499379,0.16733368,57.0,8,-0.089751236
1.7690645,2.220837,-0.6555073,41.0,1,-0.089748934
8.93187,11.208809,0.7511257,10.0,9,-0.08974663
1.9245574,2.4151714,-0.6002851,29.0,2,-0.08974433
19.468397,24.42259,2.7325068,16.0,10,-0.08974202
2.2919865,2.8742077,-0.58224916,32.0,3,-0.08973972
34.30639,43.005657,6.7547307,13.0,11,-0.089737415
2.545714,3.190103,-0.50112677,32.0,4,-0.08973511
2.9807405,3.7339098,-0.4179989,30.0,5,-0.0897305
28.328033,35.47322,8.824153,23.0,13,-0.0897282
3.578971,4.480092,-0.3005131,40.0,6,-0.0897259
4.4240017,5.5339246,-0.123667754,30.0,7,-0.089721285
28.893484,36.129543,12.39588,16.0,15,-0.08971898
1.6132165,2.0121844,-0.6910469,51.0,0,-0.08969825
5.9165063,7.377092,0.16506486,53.0,8,-0.089695945
1.7865624,2.2268078,-0.65910655,45.0,1,-0.089693636
8.96274,11.171341,0.75060236,11.0,9,-0.08969133
1.947723,2.4268115,-0.60486454,29.0,2,-0.08968903
19.099485,23.788973,2.6690574,5.0,10,-0.08968673
2.300768,2.86465,-0.5819363,45.0,3,-0.08968443
2.561253,3.187833,-0.5021018,41.0,4,-0.089679815
33.39667,41.551952,8.443395,14.0,12,-0.08967751
3.0461895,3.788698,-0.42532,34.0,5,-0.08967521
3.600849,4.4753513,-0.30103645,33.0,6,-0.0896706
31.12195,38.68023,11.461706,25.0,14,-0.0896683
4.437312,5.5129933,-0.12352814,28.0,7,-0.089665994
1.6138139,1.9993072,-0.6884587,54.0,0,-0.08964295
5.788926,7.1691785,0.16084138,54.0,8,-0.08964065
1.7767944,2.1996474,-0.65280795,45.0,1,-0.089638345
9.031116,11.180399,0.7532192,28.0,9,-0.08963604
1.931081,2.389799,-0.59723216,41.0,2,-0.08963373
2.3139818,2.8616118,-0.5828749,38.0,3,-0.08962913
33.474724,41.382126,6.535366,12.0,11,-0.08962683
2.5293622,3.1268482,-0.49381462,37.0,4,-0.08962452
3.0474558,3.7646377,-0.42375124,33.0,5,-0.08961991
28.351385,35.011047,8.756989,23.0,13,-0.08961761
3.5854945,4.4261417,-0.29852432,33.0,6,-0.0896153
31.102823,38.395126,11.407718,18.0,14,-0.089613
4.425355,5.4609604,-0.12269042,28.0,7,-0.089610696
29.443907,36.321297,12.528395,34.0,15,-0.08960839
1.6204356,1.9939442,-0.6884587,48.0,0,-0.08958766
5.8618665,7.2104554,0.16220267,56.0,8,-0.08958535
1.7902261,2.2013032,-0.6550575,43.0,1,-0.08958305
9.004547,11.068239,0.7477762,32.0,9,-0.089580745
1.9637755,2.4138403,-0.60486454,43.0,2,-0.08957844
18.039455,22.165918,2.500324,4.0,10,-0.08957613
2.3109863,2.8386045,-0.5797462,34.0,3,-0.08957383
33.591717,41.246254,6.531466,12.0,11,-0.08957153
2.554053,3.13493,-0.49649575,40.0,4,-0.089569226
2.9913354,3.669045,-0.4141641,30.0,5,-0.089564614
33.250977,40.784233,10.228508,32.0,13,-0.08956231
3.5483983,4.350768,-0.2942328,39.0,6,-0.08956001
31.285946,38.346714,11.4257145,18.0,14,-0.0895577
4.388758,5.377313,-0.12115461,27.0,7,-0.0895554
29.641369,36.3051,12.558418,17.0,15,-0.089553095
1.6191654,1.9775288,-0.68483526,46.0,0,-0.08953236
5.702043,6.964053,0.15710656,56.0,8,-0.08953006
1.7917256,2.1875021,-0.65280795,41.0,1,-0.08952775
9.02793,11.0182085,0.74652016,30.0,9,-0.08952545
1.9726089,2.406627,-0.60486454,47.0,2,-0.089523144
18.114265,22.091942,2.4994524,14.0,10,-0.08952084
2.311352,2.817897,-0.5772432,36.0,3,-0.08951853
33.6423,41.01519,6.5134296,12.0,11,-0.08951623
2.5800915,3.1444097,-0.49942058,45.0,4,-0.08951393
33.40919,40.701973,8.340148,14.0,12,-0.089511625
3.0243514,3.6832194,-0.4169531,28.0,5,-0.089509316
33.492435,40.77436,10.256747,32.0,13,-0.08950701
3.6163096,4.401001,-0.29852432,45.0,6,-0.08950471
31.395338,38.194153,11.414466,12.0,14,-0.08950241
4.427815,5.3866806,-0.12171309,31.0,7,-0.08950011
1.6125373,1.9554709,-0.67914116,49.0,0,-0.08947706
5.8916802,7.1421,0.16160928,67.0,8,-0.08947476
1.7761643,2.152363,-0.6442598,43.0,1,-0.08947246
9.026292,10.934218,0.743066,31.0,9,-0.08947015
1.9834958,2.4027562,-0.60562783,37.0,2,-0.089467846
17.93373,21.716719,2.4640672,19.0,10,-0.08946554
2.318659,2.806765,-0.5766175,33.0,3,-0.08946324
33.602757,40.662056,6.4768686,12.0,11,-0.08946093
2.546065,3.079853,-0.490646,30.0,4,-0.08945863
33.86027,40.944603,8.415236,14.0,12,-0.08945633
3.0194147,3.6511438,-0.4145127,31.0,5,-0.089454025
35.198856,42.54808,10.733769,35.0,13,-0.08945172
3.6278286,4.383735,-0.29821032,47.0,6,-0.08944941
33.36643,40.304447,12.079871,7.0,14,-0.08944711
4.411819,5.3272886,-0.12073575,29.0,7,-0.08944481
31.177216,37.63327,13.094691,19.0,15,-0.08944251
1.6107141,1.9394268,-0.67551774,52.0,0,-0.089421764
5.8105135,6.993826,0.1587122,63.0,8,-0.08941946
1.7998587,2.1656334,-0.6501085,45.0,1,-0.08941716
8.989073,10.81203,0.7368904,30.0,9,-0.08941486
1.9717897,2.3716629,-0.5995219,34.0,2,-0.089412555
17.973759,21.61109,2.4591863,28.0,10,-0.089410245
2.3410757,2.8138404,-0.5797462,36.0,3,-0.08940794
33.43715,40.175297,6.417884,12.0,11,-0.08940564
2.5440996,3.0556905,-0.48820862,33.0,4,-0.08940334
27.812233,33.393154,6.8831177,27.0,12,-0.08940103
2.9836874,3.5824068,-0.4078889,34.0,5,-0.08939873
3.6188138,4.341893,-0.29622155,37.0,6,-0.08939412
33.47822,40.153294,12.069524,14.0,14,-0.08939181
4.374028,5.24429,-0.11919994,27.0,7,-0.08938951
1.621193,1.9382377,-0.6770707,44.0,0,-0.08936647
5.8669662,7.0118456,0.1595848,54.0,8,-0.08936417
1.8161633,2.1697974,-0.65325785,32.0,1,-0.08936186
8.905659,10.639724,0.72715586,31.0,9,-0.08935956
1.981317,2.36627,-0.5999035,39.0,2,-0.08935726
17.882755,21.34967,2.4365258,28.0,10,-0.089354955
2.3242416,2.7738545,-0.57317597,45.0,3,-0.089352645
2.554218,3.0472379,-0.48820862,33.0,4,-0.08934804
27.978668,33.367332,6.8968835,18.0,12,-0.08934574
2.915509,3.475801,-0.39690727,38.0,5,-0.08934343
3.6121178,4.30323,-0.29444212,37.0,6,-0.089338824
33.89183,40.376408,12.170301,22.0,14,-0.08933652
4.3759646,5.211378,-0.118781075,22.0,7,-0.08933421
1.6213902,1.925462,-0.67448246,37.0,0,-0.089311175
5.7806816,6.862352,0.1566179,49.0,8,-0.08930887
1.7932104,2.1279988,-0.6424602,40.0,1,-0.08930657
8.919011,10.58417,0.7253764,32.0,9,-0.08930426
1.9967461,2.3686929,-0.60219324,38.0,2,-0.08930196
17.023548,20.187504,2.3103244,4.0,10,-0.08929966
2.366543,2.8053892,-0.5813105,29.0,3,-0.089297354
33.469173,39.661533,6.3720613,12.0,11,-0.089295045
2.6321623,3.1191566,-0.50112677,43.0,4,-0.08929274
28.182177,33.384567,6.919723,18.0,12,-0.08929044
3.0144303,3.5696259,-0.4087604,45.0,5,-0.08928814
33.848732,40.068737,10.195688,32.0,13,-0.08928583
3.661174,4.3324175,-0.29726827,38.0,6,-0.089283526
34.23433,40.510883,12.244986,31.0,14,-0.08928122
4.342873,5.137281,-0.11741979,23.0,7,-0.08927892
1.611525,1.9009192,-0.66775316,37.0,0,-0.08925588
5.837033,6.8827987,0.15752542,56.0,8,-0.089253575
1.7939544,2.11461,-0.6402107,45.0,1,-0.08925127
8.904212,10.49206,0.72118956,32.0,9,-0.08924897
2.0020487,2.359065,-0.60143,39.0,2,-0.08924666
16.982092,20.003353,2.2956822,4.0,10,-0.08924436
2.323407,2.7357934,-0.5684829,29.0,3,-0.089242056
2.5761864,3.031294,-0.4884524,35.0,4,-0.089237444
28.30111,33.28899,6.9203486,18.0,12,-0.08923514
3.008185,3.5383575,-0.40632007,49.0,5,-0.08923284
3.683287,4.3293786,-0.2978963,38.0,6,-0.08922823
33.654358,39.54374,11.988091,21.0,14,-0.089225926
4.3542986,5.114476,-0.11724527,19.0,7,-0.08922362
41.349083,48.550667,17.087751,45.0,15,-0.08922132
1.6332036,1.9129124,-0.6739648,45.0,0,-0.089200586
5.799986,6.790913,0.15588489,67.0,8,-0.08919828
1.8063877,2.1142616,-0.6420103,37.0,1,-0.089195974
8.887576,10.398666,0.716898,31.0,9,-0.08919367
1.9962395,2.3356457,-0.59723216,47.0,2,-0.08919137
16.844648,19.70166,2.2677922,26.0,10,-0.08918906
2.3213863,2.7141562,-0.5656671,39.0,3,-0.08918676
2.5751343,3.0087106,-0.48625872,34.0,4,-0.08918215
33.687145,39.345123,8.203737,14.0,12,-0.08917984
3.0399559,3.5505366,-0.40893474,42.0,5,-0.08917754
33.369724,38.960663,9.971297,31.0,13,-0.08917524
3.682782,4.2982955,-0.29664022,38.0,6,-0.08917294
33.679325,39.29433,11.9480505,21.0,14,-0.089170635
4.2601852,4.968691,-0.114243455,18.0,7,-0.089168325
1.6449095,1.9130586,-0.6760354,47.0,0,-0.08914529
5.8288693,6.7766914,0.15602452,56.0,8,-0.089142986
1.8277389,2.124192,-0.64695925,28.0,1,-0.089140676
8.853464,10.285835,0.7112457,31.0,9,-0.089138374
2.0069425,2.3316388,-0.5979954,46.0,2,-0.08913607
16.831413,19.547626,2.2568107,21.0,10,-0.08913377
2.3347147,2.710526,-0.5666057,38.0,3,-0.08913146
35.02646,40.650204,6.588501,13.0,11,-0.08912916
2.5908043,3.0057182,-0.48723367,33.0,4,-0.089126855
33.832012,39.23628,8.205614,14.0,12,-0.08912455
2.9709632,3.4443238,-0.3979531,34.0,5,-0.08912225
32.902843,38.14522,9.791936,30.0,13,-0.08911994
3.670362,4.25366,-0.29444212,39.0,6,-0.08911764
33.63164,38.96263,11.882814,21.0,14,-0.08911534
4.2696633,4.9447074,-0.11403403,26.0,7,-0.089113034
1.64938,1.9040967,-0.6750001,44.0,0,-0.08908999
5.7385836,6.6248035,0.15298781,66.0,8,-0.08908769
1.8313134,2.1133811,-0.6456095,34.0,1,-0.089085385
8.814744,10.168847,0.7052794,33.0,9,-0.08908308
2.0296226,2.3405836,-0.60219324,38.0,2,-0.08908077
16.752811,19.312721,2.236765,17.0,10,-0.08907847
2.31874,2.672112,-0.56034833,36.0,3,-0.08907617
2.6025822,2.9981546,-0.4874774,31.0,4,-0.08907156
2.9921138,3.444462,-0.39917332,48.0,5,-0.08906695
33.099087,38.089584,9.808727,30.0,13,-0.08906465
3.6282747,4.1738544,-0.28983656,32.0,6,-0.08906234
35.137352,40.406673,12.36241,7.0,14,-0.08906004
4.281648,4.923739,-0.11389441,26.0,7,-0.089057736
1.6433175,1.8837698,-0.6698237,44.0,0,-0.0890347
5.715492,6.549487,0.15173122,45.0,8,-0.08903239
1.8364847,2.1037185,-0.6447097,32.0,1,-0.08903009
2.0287416,2.323133,-0.5995219,37.0,2,-0.08902548
2.343652,2.6818502,-0.56410277,33.0,3,-0.08902087
2.591338,2.963193,-0.48333386,37.0,4,-0.089016266
33.02458,37.750248,7.944056,25.0,12,-0.08901396
3.0217767,3.4529629,-0.40143937,34.0,5,-0.089011654
34.167927,39.04345,10.085019,32.0,13,-0.08900935
3.5533626,4.0589767,-0.28271887,39.0,6,-0.08900705
35.08305,40.060932,12.294025,7.0,14,-0.08900474
4.2878075,4.8944745,-0.113580264,36.0,7,-0.08900244
1.6655138,1.8951477,-0.6760354,40.0,0,-0.0889794
5.709279,6.49645,0.15096332,64.0,8,-0.0889771
1.8296627,2.0811963,-0.6397608,33.0,1,-0.08897479
8.813421,10.021522,0.69941777,43.0,9,-0.08897249
2.0346487,2.312734,-0.5987587,46.0,2,-0.088970184
16.50886,18.758604,2.1862147,25.0,10,-0.08896788
2.3560758,2.6762083,-0.5647285,31.0,3,-0.08896557
2.642338,3.0003107,-0.4908898,41.0,4,-0.08896097
3.0219545,3.428942,-0.39987054,37.0,5,-0.088956356
33.144894,37.595512,9.742326,30.0,13,-0.088954054
3.632951,4.1193223,-0.2878478,30.0,6,-0.08895175
35.20256,39.901398,12.284577,15.0,14,-0.08894945
4.277083,4.8479877,-0.11284725,36.0,7,-0.08894715
1.6736884,1.8930928,-0.6770707,40.0,0,-0.0889287
5.615728,6.349662,0.14796151,54.0,8,-0.0889264
1.8323187,2.0710588,-0.6384111,40.0,1,-0.088924095
8.717787,9.850206,0.6893693,30.0,9,-0.088921785
2.0349953,2.2993364,-0.5968506,39.0,2,-0.08891948
15.828799,17.878635,2.089123,12.0,10,-0.08891718
2.293283,2.5893507,-0.54783356,34.0,3,-0.08891488
34.783215,39.260033,6.4403076,25.0,11,-0.08891257
2.6227837,2.9593117,-0.48552752,42.0,4,-0.08891027
32.52463,36.684914,7.7650948,12.0,12,-0.088907965
3.0300686,3.416449,-0.39952192,41.0,5,-0.08890566
3.5894833,4.0457788,-0.2834516,40.0,6,-0.08890105
35.2419,39.707855,12.2571335,23.0,14,-0.08889875
4.2856555,4.8270493,-0.11267274,38.0,7,-0.088896446
34.192028,38.497902,13.796609,24.0,15,-0.088894136
1.6664824,1.8710762,-0.67137665,43.0,0,-0.0888734
5.6325393,6.3240457,0.14782189,59.0,8,-0.0888711
1.8213865,2.0442812,-0.6321125,50.0,1,-0.0888688
8.564745,9.609482,0.67461056,20.0,9,-0.088866495
2.0159729,2.2610888,-0.5888366,37.0,2,-0.088864185
15.341203,17.200466,2.0164354,8.0,10,-0.08886188
2.3882396,2.6767368,-0.5681701,40.0,3,-0.08885958
33.343414,37.37127,6.1495275,22.0,11,-0.08885728
2.6714318,2.9930866,-0.49259594,32.0,4,-0.08885497
32.907692,36.857044,7.8257914,12.0,12,-0.08885267
3.0977182,3.4682627,-0.406843,42.0,5,-0.088850364
33.85133,37.887268,9.875893,30.0,13,-0.08884806
3.7333913,4.1770425,-0.29360473,43.0,6,-0.08884575
35.285877,39.46511,12.22204,30.0,14,-0.08884345
4.2784867,4.785228,-0.112044446,38.0,7,-0.08884115
34.223183,38.263115,13.755198,24.0,15,-0.088838845
1.6549447,1.8451145,-0.66412973,43.0,0,-0.08881811
5.640989,6.286988,0.14743793,64.0,8,-0.0888158
1.8405834,2.0506427,-0.63616157,44.0,1,-0.0888135
8.520861,9.493317,0.6685395,33.0,9,-0.0888112
2.0054896,2.2335868,-0.58349395,32.0,2,-0.088808894
15.435771,17.185345,2.0209675,8.0,10,-0.088806584
2.3830466,2.6522202,-0.5647285,36.0,3,-0.08880428
33.46025,37.226673,6.1458716,22.0,11,-0.08880198
2.6438928,2.9404678,-0.48552752,28.0,4,-0.08879968
33.104836,36.818325,7.8420606,12.0,12,-0.08879737
3.0178714,3.3552158,-0.3948155,34.0,5,-0.088795066
3.7345889,4.1491394,-0.292558,34.0,6,-0.08879046
33.779133,37.51552,11.654714,19.0,14,-0.08878816
4.2991796,4.774721,-0.112149164,42.0,7,-0.08878585
29.981318,33.285965,12.00351,15.0,15,-0.08878355
1.6820941,1.8622634,-0.67241186,43.0,0,-0.08876281
5.554577,6.149529,0.14464554,72.0,8,-0.08876051
1.8525993,2.0503118,-0.6379612,43.0,1,-0.0887582
8.606173,9.521307,0.6726217,30.0,9,-0.0887559
2.0080078,2.2207475,-0.5819675,30.0,2,-0.088753596
15.273807,16.886074,1.9920316,11.0,10,-0.08875129
2.3626757,2.6120741,-0.55784535,37.0,3,-0.088748984
35.410854,39.135048,6.4802814,12.0,11,-0.08874668
2.6403086,2.9169662,-0.48309013,39.0,4,-0.08874438
33.17748,36.641033,7.82892,12.0,12,-0.08874208
3.071027,3.39044,-0.40021914,35.0,5,-0.088739775
33.330803,36.79749,9.650738,29.0,13,-0.088737465
3.595445,3.9680061,-0.28062543,37.0,6,-0.08873516
36.367737,40.1221,12.50188,8.0,14,-0.08873286
4.3198466,4.764132,-0.112253875,36.0,7,-0.08873056
30.120695,33.206852,12.012828,31.0,15,-0.08872825
1.6908594,1.8595345,-0.6734472,47.0,0,-0.088707514
5.5773525,6.1315823,0.14468044,57.0,8,-0.08870521
1.8387599,2.0207713,-0.63076276,53.0,1,-0.08870291
8.491186,9.331695,0.66121256,28.0,9,-0.0887006
2.033862,2.2344027,-0.5873101,37.0,2,-0.0886983
15.120461,16.60551,1.964839,19.0,10,-0.088695996
2.374439,2.6067321,-0.5584711,38.0,3,-0.08869369
39.32299,43.154858,7.168599,15.0,11,-0.08869139
2.6892564,2.9502761,-0.49015856,38.0,4,-0.08868908
33.29881,36.5308,7.82892,12.0,12,-0.08868678
3.0634599,3.3596253,-0.3977788,33.0,5,-0.08868448
33.059486,36.24287,9.535489,29.0,13,-0.088682175
3.5594637,3.9008422,-0.27675256,36.0,6,-0.088679865
33.97457,37.219967,11.634468,6.0,14,-0.08867756
4.3329263,4.7468257,-0.11218407,34.0,7,-0.08867526
30.376535,33.26657,12.070803,15.0,15,-0.08867296
1.6934258,1.8493469,-0.6718943,52.0,0,-0.088652216
5.630066,6.1484504,0.14551817,70.0,8,-0.08864991
1.8572971,2.027596,-0.6348119,39.0,1,-0.08864761
8.50482,9.28138,0.6597471,31.0,9,-0.08864531
2.004504,2.1867676,-0.5766248,32.0,2,-0.08864301
15.014043,16.373487,1.943573,15.0,10,-0.0886407
2.3790643,2.5944762,-0.5575325,39.0,3,-0.088638395
39.47126,43.03006,7.169574,15.0,11,-0.08863609
2.678891,2.9194045,-0.48650244,50.0,4,-0.08863379
32.83567,35.771152,7.6906323,11.0,12,-0.08863148
3.0940354,3.369456,-0.40021914,31.0,5,-0.08862918
33.01219,35.95083,9.487406,28.0,13,-0.08862688
3.5737305,3.890489,-0.27685726,33.0,6,-0.088624574
33.952766,36.949265,11.58498,26.0,14,-0.088622265
4.322405,4.702227,-0.11148597,31.0,7,-0.08861996
1.6956216,1.8394593,-0.6703414,48.0,0,-0.088596925
5.595916,6.0684857,0.14408708,62.0,8,-0.08859462
1.864364,2.0211,-0.6348119,41.0,1,-0.08859231
8.465378,9.173844,0.65419954,32.0,9,-0.08859001
2.0130765,2.1815507,-0.57700646,38.0,2,-0.08858771
14.6304035,15.849268,1.887096,15.0,10,-0.08858541
2.4242904,2.6253397,-0.56597996,38.0,3,-0.0885831
37.767776,40.885582,6.83419,14.0,11,-0.088580795
2.6809826,2.9012876,-0.48504004,55.0,4,-0.08857849
33.046158,35.749146,7.7106557,12.0,12,-0.08857619
3.0862572,3.3386953,-0.3977788,33.0,5,-0.08857388
33.16147,35.861324,9.494275,28.0,13,-0.08857158
3.591357,3.8823898,-0.27717125,37.0,6,-0.088569276
36.05099,38.958817,12.254434,7.0,14,-0.088566974
4.355092,4.7047205,-0.11190483,32.0,7,-0.088564664
30.60017,33.045193,12.067698,15.0,15,-0.08856236
1.6954602,1.8264505,-0.66775316,51.0,0,-0.08854163
5.5966554,6.026933,0.14356351,60.0,8,-0.088539325
1.8594706,2.0017304,-0.63076276,53.0,1,-0.08853702
8.440244,9.08279,0.6498033,37.0,9,-0.08853471
2.015333,2.168758,-0.5754799,42.0,2,-0.08853241
14.499801,15.598178,1.8632153,18.0,10,-0.08853011
2.425368,2.6081824,-0.56410277,31.0,3,-0.088527806
35.495487,38.157635,6.3988724,12.0,11,-0.0885255
2.692447,2.893364,-0.48528376,47.0,4,-0.088523194
33.248802,35.717445,7.728802,12.0,12,-0.08852089
3.0653112,3.292903,-0.39359534,31.0,5,-0.08851859
33.687813,36.176388,9.60876,29.0,13,-0.08851628
3.6321156,3.8990574,-0.2792647,40.0,6,-0.08851398
34.10892,36.602978,11.550787,26.0,14,-0.088511676
4.351037,4.667548,-0.11138126,26.0,7,-0.08850937
1.703145,1.8219317,-0.66827077,47.0,0,-0.08848633
5.579414,5.966465,0.14258616,57.0,8,-0.08848403
1.8597908,1.9881113,-0.6285133,45.0,1,-0.088481724
8.47736,9.059105,0.650222,30.0,9,-0.08847942
2.0309405,2.1703105,-0.57776964,41.0,2,-0.08847711
14.424806,15.409293,1.8466558,21.0,10,-0.08847481
2.4236565,2.5881648,-0.5615998,31.0,3,-0.08847251
41.211666,43.99356,7.401613,17.0,11,-0.088470206
2.7147458,2.8969846,-0.4874774,51.0,4,-0.088467896
33.019333,35.22357,7.6468306,11.0,12,-0.088465594
3.0972269,3.3039856,-0.39620999,33.0,5,-0.08846329
33.881046,36.130173,9.627841,29.0,13,-0.08846099
3.6279387,3.8674192,-0.27790397,34.0,6,-0.08845869
34.24449,36.49221,11.553486,6.0,14,-0.08845638
4.4069924,4.694613,-0.112393506,34.0,7,-0.088454075
30.827475,32.827938,12.066662,31.0,15,-0.08845177
1.709494,1.8159758,-0.66827077,44.0,0,-0.08843104
5.47271,5.811565,0.13934001,57.0,8,-0.08842873
1.8760724,1.991537,-0.63166255,32.0,1,-0.088426426
8.336338,8.8463125,0.63703334,33.0,9,-0.088424124
2.0640857,2.1903558,-0.5850204,34.0,2,-0.08842182
14.399234,15.274763,1.8365457,21.0,10,-0.08841951
2.3730457,2.5164533,-0.54783356,25.0,3,-0.08841721
2.7003188,2.861503,-0.48309013,46.0,4,-0.088412605
33.58415,35.57637,7.748826,12.0,12,-0.0884103
3.0991683,3.2830117,-0.39498982,33.0,5,-0.08840799
34.141743,36.15443,9.666002,29.0,13,-0.08840569
3.6235876,3.8358567,-0.27654323,33.0,6,-0.08840339
34.891,36.921997,11.728048,27.0,14,-0.08840109
4.4398365,4.6966405,-0.112812355,36.0,7,-0.08839878
30.880829,32.655556,12.0428505,31.0,15,-0.088396475
1.7131649,1.8071932,-0.6672355,43.0,0,-0.08837574
5.475074,5.773564,0.13888624,55.0,8,-0.08837344
1.8508251,1.9510446,-0.6208649,33.0,1,-0.08837113
8.276431,8.721539,0.630125,30.0,9,-0.088368826
2.0595565,2.1703198,-0.5815858,41.0,2,-0.08836652
14.263165,15.0250025,1.8124908,21.0,10,-0.08836422
2.3845356,2.5110202,-0.5484593,37.0,3,-0.08836192
39.663876,41.753197,7.0711036,15.0,11,-0.08835961
2.7431078,2.886597,-0.48893982,36.0,4,-0.08835731
33.724457,35.47611,7.75258,12.0,12,-0.088355005
3.0749173,3.234629,-0.3904577,38.0,5,-0.0883527
3.6259413,3.8116086,-0.27570584,37.0,6,-0.08834809
36.18304,38.022514,12.117663,7.0,14,-0.08834579
4.4010534,4.623178,-0.11141616,30.0,7,-0.088343486
30.965315,32.516792,12.031463,31.0,15,-0.08834118
1.7194624,1.8012024,-0.6672355,41.0,0,-0.08832044
5.522817,5.78334,0.13958435,60.0,8,-0.08831814
1.873778,1.9614809,-0.62626374,47.0,1,-0.08831584
8.33028,8.717144,0.63190436,27.0,9,-0.088313535
2.0603378,2.156021,-0.57967776,55.0,2,-0.088311225
14.307269,14.966477,1.8114449,25.0,10,-0.08830892
2.3755383,2.4841208,-0.544392,28.0,3,-0.08830662
35.517075,37.127575,6.308689,23.0,11,-0.08830432
2.6612127,2.7809122,-0.47260937,38.0,4,-0.08830201
3.1605902,3.301594,-0.39987054,39.0,5,-0.088297404
35.209393,36.76738,9.895354,31.0,13,-0.0882951
3.6475134,3.8075829,-0.27633387,33.0,6,-0.08829279
33.56364,35.024296,11.199413,17.0,14,-0.08829049
4.417164,4.607788,-0.11141616,31.0,7,-0.08828819
1.7177069,1.7868329,-0.66412973,41.0,0,-0.08826515
5.5249534,5.745288,0.13913059,65.0,8,-0.08826284
1.8562938,1.9296503,-0.6181655,34.0,1,-0.08826054
8.172213,8.495159,0.6177737,22.0,9,-0.08825824
2.0664904,2.1474009,-0.5792962,55.0,2,-0.088255934
14.185325,14.735582,1.7894818,21.0,10,-0.088253625
2.4403727,2.5341535,-0.5572196,27.0,3,-0.08825132
38.44222,39.90553,6.8034787,13.0,11,-0.08824902
2.7200007,2.823538,-0.48138395,45.0,4,-0.08824672
33.77325,35.046597,7.708779,12.0,12,-0.08824441
3.0946577,3.2102163,-0.3901091,32.0,5,-0.088242106
3.63721,3.77039,-0.27455446,33.0,6,-0.0882375
33.651184,34.883354,11.189965,23.0,14,-0.08823519
4.406035,4.5657754,-0.11075297,33.0,7,-0.08823289
34.35511,35.58819,13.254124,21.0,15,-0.08823059
1.7034708,1.7603033,-0.6563651,46.0,0,-0.08820985
5.514768,5.6967607,0.13839759,62.0,8,-0.08820755
1.8708171,1.9318829,-0.6208649,34.0,1,-0.08820524
8.230907,8.499575,0.6200765,58.0,9,-0.08820294
2.0940897,2.1616883,-0.5850204,45.0,2,-0.088200636
13.872231,14.315022,1.7439864,10.0,10,-0.088198334
2.4295144,2.5061898,-0.55283946,37.0,3,-0.088196024
2.7113829,2.7959776,-0.47821537,40.0,4,-0.08819142
3.1413624,3.2371106,-0.39464122,35.0,5,-0.08818681
34.86262,35.912685,9.72897,30.0,13,-0.088184506
3.6719568,3.781232,-0.2762292,31.0,6,-0.0881822
33.698803,34.70166,11.16747,35.0,14,-0.0881799
4.4044323,4.5339265,-0.11033412,33.0,7,-0.0881776
1.7200836,1.7657146,-0.6605062,45.0,0,-0.088154554
5.5252514,5.6698527,0.13818815,57.0,8,-0.08815225
1.8404847,1.8879926,-0.60871756,39.0,1,-0.08814995
8.2549515,8.46507,0.61965775,30.0,9,-0.08814764
2.0957644,2.1491094,-0.58349395,47.0,2,-0.08814534
13.690056,14.033631,1.715225,20.0,10,-0.088143036
2.412978,2.4726722,-0.54720783,36.0,3,-0.08814073
2.7377698,2.803538,-0.4811402,42.0,4,-0.08813612
3.1325877,3.2067235,-0.39220083,30.0,5,-0.08813152
34.893715,35.707005,9.704546,30.0,13,-0.088129215
3.6733053,3.7576096,-0.27539182,36.0,6,-0.088126905
33.89737,34.663258,11.193115,17.0,14,-0.0881246
4.4328184,4.5313888,-0.11064825,31.0,7,-0.0881223
40.368725,41.25198,15.465473,37.0,15,-0.08812
1.7289413,1.762459,-0.6615415,45.0,0,-0.088099256
5.488987,5.5934396,0.13679196,47.0,8,-0.088096954
1.8675417,1.9024159,-0.61546606,47.0,1,-0.08809465
8.1543,8.303679,0.6099233,26.0,9,-0.08809235
2.083994,2.1221712,-0.5781513,47.0,2,-0.08809005
13.783642,14.031237,1.720803,23.0,10,-0.08808774
2.4257488,2.4684603,-0.5481464,41.0,3,-0.088085435
37.113003,37.753326,6.5002675,12.0,11,-0.08808313
2.6890805,2.7345188,-0.47090316,36.0,4,-0.08808083
34.6449,35.21801,7.8245397,12.0,12,-0.08807852
3.1619267,3.2142327,-0.39446688,34.0,5,-0.08807622
33.985336,34.53551,9.418332,28.0,13,-0.08807392
3.6569748,3.7148755,-0.27319372,36.0,6,-0.088071615
34.07696,34.60442,11.2124605,5.0,14,-0.088069305
4.4415936,4.508764,-0.11047374,33.0,7,-0.088067
1.720149,1.7412949,-0.6558475,42.0,0,-0.088043965
5.4382,5.503126,0.13504672,47.0,8,-0.08804166
1.8878707,1.9097446,-0.6199651,47.0,1,-0.08803935
8.253403,8.349032,0.61526155,31.0,9,-0.08803705
2.074824,2.0981317,-0.57357186,47.0,2,-0.08803475
13.804516,13.954705,1.7173166,27.0,10,-0.08803245
2.426013,2.4515536,-0.5462692,43.0,3,-0.08803014
37.280884,37.66022,6.5066047,25.0,11,-0.088027835
2.7377205,2.764609,-0.47772786,37.0,4,-0.08802553
33.730156,34.06144,7.5923915,11.0,12,-0.08802323
3.1086266,3.1380658,-0.38644853,41.0,5,-0.08802092
34.16926,34.480812,9.435887,28.0,13,-0.08801862
3.6657028,3.6978314,-0.2728797,31.0,6,-0.08801632
34.709366,35.001396,11.380274,18.0,14,-0.088014014
4.449477,4.486913,-0.11029921,31.0,7,-0.088011704
32.09083,32.349537,12.209531,32.0,15,-0.0880094
1.7303047,1.7393882,-0.6574004,40.0,0,-0.08798867
5.232182,5.2596493,0.12949686,27.0,8,-0.087986365
1.8928183,1.9020928,-0.61951524,41.0,1,-0.08798406
8.314908,8.352726,0.61766905,30.0,9,-0.08798175
2.1029158,2.111743,-0.5792962,50.0,2,-0.08797945
13.463638,13.515449,1.6690325,19.0,10,-0.08797715
2.44807,2.4574907,-0.5493979,41.0,3,-0.08797485
37.34672,37.477318,6.496368,12.0,11,-0.08797254
2.7342594,2.7428632,-0.47553423,34.0,4,-0.087970234
33.742832,33.837196,7.5686135,11.0,12,-0.08796793
3.2082105,3.2160597,-0.3974302,38.0,5,-0.08796563
3.6271555,3.6347609,-0.2691115,33.0,6,-0.08796102
34.65316,34.713696,11.324037,12.0,14,-0.087958716
4.436853,4.4430537,-0.10960111,37.0,7,-0.08795641
1.7128241,1.7104348,-0.6486005,37.0,0,-0.08793337
5.3849554,5.375567,0.13281281,45.0,8,-0.08793107
1.896688,1.8927206,-0.61861545,45.0,1,-0.087928765
8.194131,8.1741295,0.60657376,28.0,9,-0.08792646
2.0807192,2.0756402,-0.57128215,29.0,2,-0.08792415
13.33768,13.300491,1.6479408,26.0,10,-0.08792185
2.4398463,2.4321945,-0.54564345,43.0,3,-0.08791955
33.939526,33.821243,5.883121,10.0,11,-0.087917246
2.7016256,2.6912735,-0.46822205,33.0,4,-0.087914936
33.829937,33.688545,7.56173,11.0,12,-0.087912634
3.1445804,3.1303415,-0.38819164,31.0,5,-0.08791033
3.6865394,3.6685696,-0.2725657,39.0,6,-0.08790572
34.73819,34.556797,11.312339,6.0,14,-0.08790342
4.4580083,4.433178,-0.10974073,35.0,7,-0.087901115
32.28301,32.092026,12.197107,16.0,15,-0.08789881
1.7520095,1.7367864,-0.66102386,37.0,0,-0.08787808
5.257412,5.211731,0.12921762,42.0,8,-0.08787577
1.8672936,1.8504244,-0.606918,48.0,1,-0.08787347
2.093892,2.073526,-0.5728086,37.0,2,-0.08786886
13.280141,13.146395,1.6348674,32.0,10,-0.08786655
2.4599776,2.4343507,-0.5481464,43.0,3,-0.08786425
2.7067704,2.6776376,-0.46749085,40.0,4,-0.087859645
33.913628,33.536907,7.554221,11.0,12,-0.087857336
3.0903087,3.0549145,-0.38017333,31.0,5,-0.08785503
3.718433,3.673279,-0.2739264,40.0,6,-0.08785043
4.491952,4.4358563,-0.11019449,35.0,7,-0.08784582
32.387966,31.972343,12.194518,32.0,15,-0.087843515
1.752554,1.7252394,-0.6589533,35.0,0,-0.08782278
5.3791,5.293415,0.13173077,50.0,8,-0.08782048
1.8754528,1.8449341,-0.6073678,40.0,1,-0.08781817
8.194023,8.057872,0.6022822,51.0,9,-0.087815866
2.117915,2.0827236,-0.57738805,37.0,2,-0.08781356
13.304639,13.079003,1.6322527,22.0,10,-0.08781126
2.440281,2.3980582,-0.5418891,43.0,3,-0.08780895
37.924862,37.25566,6.5275664,12.0,11,-0.08780665
2.6967366,2.6482272,-0.4640785,31.0,4,-0.08780435
3.1057506,3.0477548,-0.38069627,32.0,5,-0.08779974
33.254517,32.63353,9.056559,25.0,13,-0.08779743
3.741212,3.6700685,-0.27465913,46.0,6,-0.08779513
33.35112,32.705486,10.784154,5.0,14,-0.08779283
4.4810495,4.3927646,-0.109531306,33.0,7,-0.08779053
34.004753,33.323193,12.757191,18.0,15,-0.08778822
1.7713013,1.730956,-0.66361207,38.0,0,-0.08776748
5.2459455,5.1264577,0.12803085,42.0,8,-0.08776518
1.8540012,1.8111416,-0.5983698,33.0,1,-0.08776288
8.193524,8.00131,0.6001888,32.0,9,-0.087760575
2.1732993,2.1215744,-0.590363,33.0,2,-0.087758265
13.053038,12.737936,1.5956473,15.0,10,-0.08775596
2.4688504,2.4084089,-0.5462692,40.0,3,-0.08775366
36.028393,35.146362,6.179995,11.0,11,-0.08775136
2.6917531,2.6249375,-0.4616411,40.0,4,-0.08774905
3.136348,3.056362,-0.38313666,30.0,5,-0.087744445
33.71142,32.840206,9.148148,26.0,13,-0.08774214
3.7231581,3.625677,-0.27235636,40.0,6,-0.08773983
33.24456,32.362812,10.711269,22.0,14,-0.08773753
4.4748616,4.356174,-0.10900773,33.0,7,-0.08773523
34.084873,33.16925,12.743732,18.0,15,-0.087732926
1.773173,1.7207265,-0.6620591,31.0,0,-0.08771219
5.346511,5.1865616,0.13002042,42.0,8,-0.08770988
1.8970006,1.8396064,-0.61006725,44.0,1,-0.08770758
8.100901,7.853062,0.59129167,28.0,9,-0.08770528
2.1059813,2.041551,-0.5701373,37.0,2,-0.087702975
13.163241,12.756073,1.6036657,19.0,10,-0.087700665
2.454541,2.3777857,-0.54126334,45.0,3,-0.08769836
36.199745,35.05551,6.1873074,11.0,11,-0.08769606
2.7327332,2.6454303,-0.46700338,31.0,4,-0.08769376
33.62013,32.5347,7.409989,22.0,12,-0.08769145
3.1017046,3.0005178,-0.37755868,32.0,5,-0.08768915
3.7544568,3.630707,-0.27371708,31.0,6,-0.08768454
33.461002,32.346806,10.744562,5.0,14,-0.08768223
4.495111,4.343913,-0.10911245,31.0,7,-0.08767993
34.603584,33.427986,12.891777,18.0,15,-0.08767763
1.6695559,1.6083335,-0.62116575,32.0,0,-0.08765689
5.4567547,5.256656,0.13225435,60.0,8,-0.08765459
1.8921804,1.8221598,-0.606468,40.0,1,-0.08765228
8.106683,7.803958,0.5897216,33.0,9,-0.08764998
2.1346695,2.054238,-0.5758616,34.0,2,-0.08764768
12.721711,12.23811,1.5443997,12.0,10,-0.087645374
2.471783,2.376988,-0.54314053,43.0,3,-0.087643065
38.325077,36.855278,6.5285416,12.0,11,-0.08764076
2.7319338,2.6262445,-0.4652972,38.0,4,-0.08763846
33.55687,32.247433,7.371193,21.0,12,-0.08763616
3.05325,2.9330802,-0.37041187,31.0,5,-0.08763385
3.681289,3.5339339,-0.26743674,40.0,6,-0.087629244
34.9165,33.50712,11.17242,11.0,14,-0.08762694
4.514576,4.3323483,-0.10921716,35.0,7,-0.08762464
34.27675,32.881702,12.727169,17.0,15,-0.08762233
1.7415841,1.667204,-0.64601237,38.0,0,-0.08755922
5.440923,5.2067366,0.13145153,65.0,8,-0.08755692
1.8982131,1.8158745,-0.606468,53.0,1,-0.08755462
7.937646,7.5906825,0.5755909,60.0,9,-0.08755231
2.1283422,2.03531,-0.57242703,28.0,2,-0.08755001
12.521022,11.969543,1.515464,21.0,10,-0.087547705
2.4678128,2.3582933,-0.54063755,43.0,3,-0.0875454
35.312172,33.73326,5.9962163,10.0,11,-0.08754309
2.7635975,2.6391068,-0.469197,39.0,4,-0.08754079
33.673634,32.14551,7.373383,10.0,12,-0.08753849
3.184947,3.0404131,-0.38522837,30.0,5,-0.087536186
33.990974,32.43712,9.132882,26.0,13,-0.08753388
3.6273437,3.4603114,-0.26272655,33.0,6,-0.087531574
35.33326,33.694485,11.271848,6.0,14,-0.08752927
4.489837,4.280101,-0.108274736,31.0,7,-0.08752697
34.805164,33.167667,12.88246,18.0,15,-0.08752466
1.7697953,1.6824114,-0.65429455,40.0,0,-0.087503925
