x,y,z,intensity,ring,time
2.604484,2.7216318,-0.5966411,38.0,3,-0.074403085
2.8159556,2.9405596,-0.4999081,42.0,4,-0.07439848
32.545845,33.974106,7.4516,11.0,12,-0.07439618
3.287763,3.430843,-0.41573292,34.0,5,-0.07439387
35.62975,37.180317,10.009841,31.0,13,-0.074391566
3.9252696,4.094666,-0.29726827,31.0,6,-0.074389264
35.093258,36.594933,11.705553,6.0,14,-0.07438696
4.708099,4.9078436,-0.11871127,22.0,7,-0.07438465
31.215683,32.528667,12.080121,15.0,15,-0.07438235
1.8043734,1.8750211,-0.6972586,47.0,0,-0.074361615
6.0649557,6.302421,0.15267365,59.0,8,-0.07435931
1.9650887,2.0413158,-0.6541577,38.0,1,-0.07435701
9.478939,9.8432045,0.7161653,22.0,9,-0.0743547
2.2188034,2.3032627,-0.62165576,30.0,2,-0.0743524
16.68159,17.310532,2.1032424,4.0,10,-0.0743501
2.588393,2.6850471,-0.59069663,28.0,3,-0.074347794
2.7614396,2.8635526,-0.4884524,31.0,4,-0.07434318
34.27161,35.526497,7.818282,12.0,12,-0.07434088
3.3052506,3.4250824,-0.41643015,35.0,5,-0.07433858
3.8431332,3.9796813,-0.28994122,35.0,6,-0.074333966
35.627907,36.88093,11.838724,21.0,14,-0.07433166
4.694632,4.8597417,-0.11794336,19.0,7,-0.07432936
1.8122522,1.8700979,-0.69777614,46.0,0,-0.07430632
6.025379,6.21554,0.15110293,49.0,8,-0.074304014
1.9549204,2.0159135,-0.64830893,39.0,1,-0.07430171
9.507682,9.804319,0.7157466,27.0,9,-0.07429941
2.2541704,2.3236861,-0.6292881,37.0,2,-0.0742971
16.761333,17.272217,2.1056828,4.0,10,-0.0742948
2.5606003,2.6377258,-0.58224916,30.0,3,-0.074292496
33.523937,34.52159,5.90847,10.0,11,-0.07429019
2.8424582,2.9260292,-0.50088304,41.0,4,-0.074287884
32.952915,33.92176,7.490396,11.0,12,-0.07428558
3.3130217,3.4092367,-0.4159072,33.0,5,-0.07428328
32.76384,33.70355,9.136699,26.0,13,-0.07428098
3.9307988,4.0421314,-0.29548883,34.0,6,-0.07427867
33.739925,34.683434,11.17107,23.0,14,-0.074276365
4.750611,4.8834577,-0.1189207,27.0,7,-0.07427406
34.3468,35.294918,13.196149,20.0,15,-0.07427176
1.8012277,1.8457879,-0.6910469,44.0,0,-0.074251026
6.1129947,6.2642226,0.15277837,68.0,8,-0.074248716
1.95615,2.0038412,-0.6465093,37.0,1,-0.074246414
9.430217,9.6567545,0.70737284,27.0,9,-0.07424411
2.2142496,2.266652,-0.61593145,31.0,2,-0.07424181
17.02762,17.424494,2.131481,4.0,10,-0.0742395
2.5748565,2.6348705,-0.5835006,32.0,3,-0.0742372
33.60492,34.37617,5.9026203,10.0,11,-0.074234895
2.8368785,2.900976,-0.49820194,36.0,4,-0.07423259
33.278336,34.01833,7.5373263,11.0,12,-0.07423028
3.3137546,3.3862586,-0.4145127,33.0,5,-0.07422798
32.83697,33.55543,9.126013,25.0,13,-0.07422568
3.896677,3.9805486,-0.29193,35.0,6,-0.07422338
33.22212,33.92531,10.962315,5.0,14,-0.074221075
4.728448,4.8268466,-0.11794336,25.0,7,-0.074218765
34.485996,35.19139,13.20236,20.0,15,-0.07421646
1.8086929,1.8411824,-0.6915645,38.0,0,-0.07419573
6.1362267,6.244271,0.15281327,59.0,8,-0.074193425
1.9644976,1.9983919,-0.64695925,40.0,1,-0.074191116
9.420453,9.579635,0.704128,28.0,9,-0.07418881
2.2341435,2.2718945,-0.619366,41.0,2,-0.07418651
16.906458,17.186132,2.109169,12.0,10,-0.07418421
2.5480125,2.5892613,-0.575366,29.0,3,-0.0741819
39.303474,39.925766,6.8790374,14.0,11,-0.0741796
2.8887737,2.9334874,-0.5055141,36.0,4,-0.074177295
33.308163,33.811882,7.5173025,22.0,12,-0.07417499
3.3283513,3.3775096,-0.41486132,34.0,5,-0.07417269
3.9385917,3.9953685,-0.29402342,37.0,6,-0.07416808
33.338978,33.80774,10.961865,11.0,14,-0.07416578
4.7354364,4.8003473,-0.117699035,23.0,7,-0.074163474
33.69949,34.1495,12.855542,18.0,15,-0.074161164
1.8249407,1.8441534,-0.695188,42.0,0,-0.07414043
6.1382923,6.202915,0.1523246,42.0,8,-0.07413813
2.0084782,2.0289147,-0.65910655,48.0,1,-0.074135825
9.191036,9.281306,0.6845544,16.0,9,-0.07413352
2.2645617,2.2860074,-0.6254719,38.0,2,-0.07413121
17.046465,17.201893,2.118756,12.0,10,-0.07412891
2.5839105,2.6065576,-0.5813105,39.0,3,-0.07412661
2.873835,2.8980145,-0.50112677,41.0,4,-0.074122
32.83332,33.09801,7.384021,10.0,12,-0.074119695
3.3681898,3.3941548,-0.41834757,38.0,5,-0.07411739
33.031975,33.27503,9.113802,25.0,13,-0.07411509
3.93632,3.9639006,-0.29276738,37.0,6,-0.07411278
33.475018,33.697765,10.965914,5.0,14,-0.07411048
4.728207,4.7596693,-0.117105655,27.0,7,-0.074108176
33.818497,34.03165,12.855542,18.0,15,-0.07410587
1.8136399,1.819982,-0.6884587,51.0,0,-0.07408514
5.966162,5.9849358,0.14750774,66.0,8,-0.07408283
1.9883808,1.9939414,-0.6501085,41.0,1,-0.07408053
9.42952,9.452589,0.6997318,33.0,9,-0.074078225
2.2891665,2.2947671,-0.6300513,41.0,2,-0.07407592
16.961454,16.997019,2.100802,12.0,10,-0.07407361
2.5846193,2.5891347,-0.5794333,41.0,3,-0.07407131
2.8942592,2.8972924,-0.502833,42.0,4,-0.074066706
33.275574,33.29882,7.4559803,11.0,12,-0.0740644
3.3538432,3.355015,-0.41503564,30.0,5,-0.074062094
33.392216,33.40388,9.180965,26.0,13,-0.07405979
3.9021168,3.902118,-0.28920853,37.0,6,-0.07405749
4.790883,4.787541,-0.1182226,27.0,7,-0.07405288
33.97033,33.934788,12.865895,18.0,15,-0.074050575
1.8189294,1.8119596,-0.6879411,44.0,0,-0.07402984
5.979933,5.957019,0.14733322,68.0,8,-0.07402754
2.0146604,2.0062401,-0.6564072,56.0,1,-0.07402523
9.131239,9.089892,0.67523855,20.0,9,-0.07402293
2.305911,2.294671,-0.632341,38.0,2,-0.074020624
16.824469,16.736616,2.076224,16.0,10,-0.07401832
2.5772836,2.5629287,-0.5756789,41.0,3,-0.07401601
38.368,38.1543,6.64383,26.0,11,-0.07401371
2.8001747,2.7836092,-0.4847963,34.0,4,-0.07401141
3.3344383,3.3123953,-0.4112008,37.0,5,-0.074006796
3.9334006,3.9046755,-0.29046458,39.0,6,-0.07400219
35.80677,35.532837,11.646166,6.0,14,-0.07399989
4.8175025,4.780647,-0.11846693,34.0,7,-0.07399759
36.175987,35.886734,13.65374,23.0,15,-0.07399528
1.8427794,1.8235823,-0.6946703,45.0,0,-0.07429385
5.9281883,5.8643837,0.14555307,62.0,8,-0.07429155
2.0299654,2.0074162,-0.65910655,40.0,1,-0.07428925
9.179791,9.077822,0.6765993,27.0,9,-0.07428694
2.2995462,2.2732089,-0.62852484,38.0,2,-0.074284635
16.806189,16.607903,2.06716,20.0,10,-0.07428233
2.5759308,2.5446508,-0.57348883,33.0,3,-0.07428003
33.8271,33.404667,5.8372984,10.0,11,-0.07427772
2.8150408,2.7798867,-0.48577127,38.0,4,-0.07427542
33.194996,32.769016,7.387775,10.0,12,-0.07427312
3.3184586,3.2747307,-0.4078889,34.0,5,-0.074270815
34.041103,33.580814,9.294688,27.0,13,-0.074268505
3.9420624,3.8874023,-0.29015055,39.0,6,-0.0742662
33.90071,33.43065,10.992008,5.0,14,-0.0742639
4.7934537,4.725339,-0.1174896,31.0,7,-0.0742616
32.74197,32.265438,12.3172,16.0,15,-0.07425929
1.8391727,1.8079817,-0.6910469,54.0,0,-0.07423855
6.0132113,5.9091682,0.14715868,70.0,8,-0.07423625
2.0199287,1.9842862,-0.65370774,41.0,1,-0.07423395
9.12578,8.964752,0.6704236,30.0,9,-0.07423165
2.3252816,2.283454,-0.6334859,34.0,2,-0.07422934
16.771593,16.464153,2.0561783,24.0,10,-0.074227035
2.6083233,2.5596163,-0.5788076,40.0,3,-0.07422473
33.780384,33.138012,5.810243,20.0,11,-0.07422243
2.8865948,2.831703,-0.49649575,50.0,4,-0.07422012
33.17936,32.537056,7.3602424,10.0,12,-0.07421782
3.3591788,3.292997,-0.4115494,35.0,5,-0.07421552
32.90991,32.250294,8.956574,24.0,13,-0.074213214
3.9363832,3.8561394,-0.28878984,39.0,6,-0.074210905
32.29772,31.639328,10.438178,15.0,14,-0.0742086
4.8262434,4.7262053,-0.11790846,34.0,7,-0.0742063
32.061897,31.386387,12.022144,31.0,15,-0.074204
1.8382479,1.7951238,-0.6884587,52.0,0,-0.07418326
6.0356374,5.891988,0.14722851,62.0,8,-0.07418095
2.0181289,1.9694111,-0.6510083,48.0,1,-0.07417865
9.202768,8.977469,0.67377317,26.0,9,-0.07417635
2.2794392,2.223635,-0.6189844,30.0,2,-0.07417405
16.60358,16.191442,2.0289855,16.0,10,-0.07417174
2.6040657,2.538543,-0.57599175,31.0,3,-0.074169435
33.991035,33.124165,5.8275485,20.0,11,-0.07416713
2.8865092,2.8119125,-0.4947896,32.0,4,-0.07416483
33.841824,32.95577,7.481636,11.0,12,-0.07416252
3.4214647,3.3318827,-0.41782463,35.0,5,-0.07416022
32.929462,32.05607,8.932915,24.0,13,-0.074157916
3.9820712,3.8751006,-0.29119727,40.0,6,-0.074155614
33.331272,32.4246,10.735564,5.0,14,-0.07415331
4.834109,4.700966,-0.117699035,29.0,7,-0.074151
32.43169,31.527431,12.119462,16.0,15,-0.0741487
1.7668391,1.7133831,-0.659471,38.0,0,-0.074127965
6.066217,5.8806276,0.14747284,57.0,8,-0.07412566
2.013796,1.9515048,-0.6474091,41.0,1,-0.07412335
9.333031,9.041181,0.6809955,32.0,9,-0.07412105
2.3125687,2.2402532,-0.62585354,30.0,2,-0.07411875
16.76734,16.237343,2.042059,20.0,10,-0.074116446
2.5859454,2.503332,-0.57004726,43.0,3,-0.07411414
34.177776,33.07434,5.839736,10.0,11,-0.074111834
2.8378093,2.7452316,-0.4847963,33.0,4,-0.07410953
35.555595,34.383656,7.833926,12.0,12,-0.07410723
3.4531262,3.3393087,-0.42026496,35.0,5,-0.07410493
3.9970098,3.8625662,-0.29130197,35.0,6,-0.074100316
32.30338,31.205923,10.369344,5.0,14,-0.07409801
4.847613,4.6812835,-0.11762922,34.0,7,-0.07409571
32.027275,30.917595,11.927935,30.0,15,-0.0740934
1.8535177,1.7849276,-0.68949395,48.0,0,-0.07407267
5.8518844,5.6333594,0.14178336,35.0,8,-0.074070364
2.0135756,1.9377067,-0.6451596,40.0,1,-0.07406806
9.350138,8.994703,0.6799488,33.0,9,-0.07406575
2.3175445,2.2294455,-0.6250903,28.0,2,-0.07406345
15.633393,15.033839,1.8975549,11.0,10,-0.07406115
2.5790036,2.4792306,-0.5666057,50.0,3,-0.074058846
34.3245,32.985107,5.845098,10.0,11,-0.07405654
2.8645542,2.7518108,-0.48772117,43.0,4,-0.074054234
3.4202135,3.2844532,-0.41486132,34.0,5,-0.07404963
33.430035,32.091892,9.007711,25.0,13,-0.07404733
4.013351,3.8513548,-0.2915113,37.0,6,-0.07404502
34.59187,33.184,11.066692,5.0,14,-0.074042715
4.8927875,4.6920185,-0.11832731,31.0,7,-0.07404041
32.213108,30.880468,11.956923,15.0,15,-0.07403811
1.8513602,1.7704353,-0.68638813,37.0,0,-0.07401737
6.130248,5.860246,0.14803131,68.0,8,-0.074015066
2.0090559,1.9198958,-0.64156044,43.0,1,-0.074012764
9.250059,8.836461,0.6704236,30.0,9,-0.07401046
2.2798858,2.1779451,-0.6128785,41.0,2,-0.07400816
15.726118,15.01771,1.9024355,7.0,10,-0.07400585
2.5690665,2.4524815,-0.5625384,40.0,3,-0.07400355
2.8755794,2.7431643,-0.4879649,35.0,4,-0.07399894
33.13865,31.601662,7.252616,10.0,12,-0.07399663
3.4446337,3.28487,-0.41643015,34.0,5,-0.07399433
33.013233,31.471067,8.865749,24.0,13,-0.07399203
4.0036373,3.8152757,-0.28983656,35.0,6,-0.07398973
33.348698,31.76865,10.633436,10.0,14,-0.07398742
4.877279,4.6445713,-0.11755942,34.0,7,-0.073985115
32.147205,30.602657,11.8927355,15.0,15,-0.07398281
1.8351148,1.7426778,-0.67810595,41.0,0,-0.07396208
6.118762,5.808522,0.14726341,67.0,8,-0.073959775
2.025641,1.9222606,-0.6447097,41.0,1,-0.073957466
9.173619,8.702403,0.66267794,31.0,9,-0.07395516
2.250441,2.1348438,-0.6029565,36.0,2,-0.07395286
15.523996,14.7214365,1.8717568,7.0,10,-0.07395056
2.6220536,2.4856274,-0.5722374,50.0,3,-0.07394825
39.066803,37.021236,6.6084876,13.0,11,-0.07394595
2.8491073,2.6989822,-0.48187143,39.0,4,-0.073943645
33.04796,31.295626,7.2088137,10.0,12,-0.07394134
3.4349475,3.2516763,-0.41381544,34.0,5,-0.07393903
33.017395,31.255753,8.83751,23.0,13,-0.07393673
4.003872,3.788925,-0.2888945,30.0,6,-0.07393443
32.86057,31.085558,10.443128,21.0,14,-0.073932126
4.8876505,4.6220207,-0.11741979,31.0,7,-0.07392982
32.163963,30.405344,11.859607,30.0,15,-0.073927514
1.7768273,1.674983,-0.65429455,35.0,0,-0.07390678
5.992038,5.6485863,0.14373802,55.0,8,-0.07390448
2.03801,1.9205254,-0.6465093,39.0,1,-0.073902175
9.148699,8.618284,0.6587004,31.0,9,-0.073899865
2.2639685,2.1319644,-0.60448295,49.0,2,-0.07389756
15.614114,14.698584,1.8761145,10.0,10,-0.07389526
2.6225145,2.4678783,-0.5703601,48.0,3,-0.07389296
41.26886,38.83545,6.958009,14.0,11,-0.07389065
2.8614035,2.69174,-0.4823589,30.0,4,-0.07388835
32.926735,30.963583,7.158755,10.0,12,-0.073886044
3.4274046,3.2219265,-0.4115494,35.0,5,-0.07388374
32.699657,30.728514,8.722261,22.0,13,-0.07388143
3.9624147,3.722261,-0.28491697,27.0,6,-0.07387913
32.4785,30.499348,10.286112,10.0,14,-0.07387683
4.9037538,4.6049323,-0.11741979,29.0,7,-0.073874526
32.250195,30.274366,11.85236,15.0,15,-0.07387222
1.8277936,1.7110181,-0.670859,42.0,0,-0.07385148
6.0126996,5.6265874,0.14373802,60.0,8,-0.07384918
2.0336516,1.9023912,-0.64291006,45.0,1,-0.07384688
9.152474,8.561735,0.6568163,35.0,9,-0.073844574
2.311547,2.1615956,-0.6151683,33.0,2,-0.073842265
15.773037,14.744671,1.8890136,11.0,10,-0.07383996
2.596475,2.4263394,-0.5628513,37.0,3,-0.07383766
41.415264,38.688007,6.95874,29.0,11,-0.07383536
2.8785038,2.6880093,-0.48357758,28.0,4,-0.07383305
33.265625,31.064163,7.2088137,10.0,12,-0.073830746
3.405133,3.178672,-0.40754023,38.0,5,-0.073828444
32.19812,30.04627,8.560455,21.0,13,-0.07382614
3.9651618,3.6988695,-0.28418428,34.0,6,-0.07382384
32.72017,30.512041,10.328853,20.0,14,-0.07382153
4.900787,4.5700564,-0.116966024,27.0,7,-0.07381923
33.045258,30.80444,12.104967,15.0,15,-0.073816925
1.838,1.7085729,-0.67241186,39.0,0,-0.07379619
6.004964,5.5821095,0.14310974,50.0,8,-0.07379388
2.0228183,1.8797188,-0.63751125,48.0,1,-0.07379158
9.217419,8.562365,0.65932846,28.0,9,-0.073789276
2.360799,2.1922548,-0.6262351,38.0,2,-0.073786974
15.384886,14.281513,1.8365457,10.0,10,-0.073784664
2.5856855,2.4002452,-0.558784,41.0,3,-0.07378236
2.8553848,2.6487477,-0.47821537,31.0,4,-0.07377776
33.02334,30.6228,7.1330996,10.0,12,-0.073775455
3.476114,3.2223027,-0.41468704,34.0,5,-0.073773146
32.121918,29.776508,8.513898,42.0,13,-0.07377084
4.015496,3.7209947,-0.28690574,34.0,6,-0.07376854
32.928387,30.5027,10.362596,10.0,14,-0.07376624
4.837476,4.4795566,-0.11508117,24.0,7,-0.07376393
33.078873,30.620653,12.07805,15.0,15,-0.07376163
1.8450749,1.7037795,-0.6729295,41.0,0,-0.07374089
6.1125727,5.642497,0.14520402,50.0,8,-0.07373859
2.0336635,1.8766115,-0.638861,44.0,1,-0.07373628
9.394013,8.66855,0.6699003,33.0,9,-0.07373398
2.3420804,2.1604538,-0.619366,42.0,2,-0.073731676
15.354536,14.15883,1.8273073,10.0,10,-0.07372937
2.633263,2.4273548,-0.5672314,52.0,3,-0.07372707
2.8894348,2.6616275,-0.4823589,33.0,4,-0.07372246
33.29325,30.668362,7.169392,10.0,12,-0.07372016
3.4955752,3.2188544,-0.41573292,28.0,5,-0.073717855
3.9740822,3.6569154,-0.2830329,26.0,6,-0.07371324
33.277035,30.610542,10.438629,21.0,14,-0.07371094
4.8375874,4.4499507,-0.114732124,26.0,7,-0.07370864
32.924263,30.275429,11.984876,15.0,15,-0.07370633
1.8495867,1.6960232,-0.67241186,39.0,0,-0.073685594
6.003024,5.504618,0.14216731,55.0,8,-0.07368329
2.0513673,1.880392,-0.6424602,44.0,1,-0.07368099
9.306415,8.527757,0.66152656,32.0,9,-0.07367869
2.3684273,2.1695051,-0.62432706,43.0,2,-0.07367638
15.425896,14.1253395,1.8299218,21.0,10,-0.073674075
2.6456683,2.422612,-0.5681701,56.0,3,-0.07367177
47.554955,43.530296,7.915902,27.0,11,-0.07366947
2.9041014,2.6573935,-0.48333386,33.0,4,-0.07366716
34.96842,31.986588,7.5060396,11.0,12,-0.07366486
3.5067906,3.2066321,-0.41573292,31.0,5,-0.07366256
32.355747,29.586304,8.522293,21.0,13,-0.073660254
3.9920833,3.6491077,-0.2834516,27.0,6,-0.073657945
33.516476,30.62621,10.481819,5.0,14,-0.07365564
4.847187,4.4276414,-0.11459251,24.0,7,-0.07365334
33.06399,30.191572,11.997299,15.0,15,-0.07365104
1.8794804,1.7119956,-0.68121177,32.0,0,-0.0736303
6.1212673,5.573833,0.14450593,62.0,8,-0.07362799
2.0680068,1.8824018,-0.6456095,41.0,1,-0.07362569
9.219422,8.389031,0.6532574,35.0,9,-0.07362339
2.358184,2.145783,-0.61974764,37.0,2,-0.07362109
15.422545,14.028521,1.8239954,25.0,10,-0.07361878
2.661417,2.420006,-0.5697344,50.0,3,-0.073616475
2.9001381,2.6352248,-0.4811402,31.0,4,-0.07361187
32.95966,29.93846,7.052379,9.0,12,-0.07360956
3.5076365,3.1849966,-0.4145127,34.0,5,-0.07360726
32.37161,29.394,8.499396,21.0,13,-0.073604956
4.0447254,3.6713955,-0.2862777,34.0,6,-0.073602654
32.90158,29.85428,10.256868,35.0,14,-0.073600344
4.8774233,4.424131,-0.11494155,26.0,7,-0.07359804
33.16917,30.07598,11.997299,15.0,15,-0.07359574
1.819828,1.6454946,-0.6574004,35.0,0,-0.073575005
6.1436543,5.5551124,0.14457573,52.0,8,-0.0735727
2.0615537,1.8634115,-0.64156044,47.0,1,-0.07357039
9.296069,8.399649,0.656607,35.0,9,-0.07356809
2.3543782,2.1265972,-0.6166947,31.0,2,-0.07356579
15.45611,13.955881,1.8219036,25.0,10,-0.07356349
2.6570718,2.398322,-0.56691855,45.0,3,-0.07356118
35.660812,32.18811,5.8984766,20.0,11,-0.073558874
2.9579558,2.6689692,-0.4891836,33.0,4,-0.07355657
33.17544,29.92379,7.076157,9.0,12,-0.07355427
3.508376,3.163393,-0.41329253,34.0,5,-0.07355196
33.222862,29.945513,8.694021,22.0,13,-0.07354966
4.0255103,3.6271338,-0.28397492,32.0,6,-0.073547356
32.949974,29.678701,10.237972,25.0,14,-0.07354505
4.8779793,4.393694,-0.11459251,24.0,7,-0.07354275
33.474953,30.140978,12.069768,15.0,15,-0.07354044
1.875871,1.6843052,-0.67551774,41.0,0,-0.07351971
6.119327,5.492487,0.14352858,62.0,8,-0.073517404
2.043712,1.8337181,-0.6339121,37.0,1,-0.0735151
9.317902,8.3604765,0.6560836,42.0,9,-0.07351279
2.360325,2.1170554,-0.6163131,42.0,2,-0.07351049
15.409797,13.816716,1.8107476,21.0,10,-0.07350819
2.668369,2.3916702,-0.56754434,43.0,3,-0.073505886
33.881687,30.35764,5.58576,9.0,11,-0.073503576
2.9440584,2.6369195,-0.48528376,29.0,4,-0.073501274
33.259098,29.789341,7.0717773,19.0,12,-0.07349897
3.523849,3.1551151,-0.41381544,34.0,5,-0.07349667
32.452385,29.046381,8.465815,20.0,13,-0.07349437
3.9503295,3.5344853,-0.27779928,25.0,6,-0.07349206
33.261074,29.749289,10.302308,10.0,14,-0.073489755
4.9111714,4.392638,-0.11501136,26.0,7,-0.07348745
33.810375,30.229975,12.15259,16.0,15,-0.07348515
1.8730868,1.6700335,-0.67241186,45.0,0,-0.07346441
6.047951,5.3923187,0.1414343,57.0,8,-0.07346211
2.0716028,1.8463805,-0.6406606,43.0,1,-0.073459804
9.330624,8.313288,0.65493226,50.0,9,-0.0734575
2.3896923,2.1283894,-0.62203735,49.0,2,-0.0734552
14.999615,13.354775,1.7570598,17.0,10,-0.07345289
2.655631,2.3644178,-0.5631641,39.0,3,-0.07345059
33.7286,30.01944,5.5440803,27.0,11,-0.073448285
2.9290583,2.6060293,-0.48138395,29.0,4,-0.07344598
33.19757,29.526024,7.036736,9.0,12,-0.07344367
3.5050607,3.1163194,-0.41032922,38.0,5,-0.07344137
32.536785,28.928175,8.462761,20.0,13,-0.07343907
3.947101,3.508097,-0.27675256,21.0,6,-0.07343677
33.050705,29.364422,10.206929,15.0,14,-0.07343446
4.88162,4.335632,-0.113964215,26.0,7,-0.073432155
1.8612607,1.6484424,-0.6662002,45.0,0,-0.07340912
6.1580663,5.4520354,0.14356351,65.0,8,-0.073406816
2.099925,1.8585104,-0.6474091,36.0,1,-0.073404506
9.335654,8.259489,0.6532574,42.0,9,-0.0734022
2.364388,2.0918338,-0.61364174,37.0,2,-0.0733999
15.097535,13.3524885,1.7633349,24.0,10,-0.0733976
2.6742272,2.3642929,-0.5653542,50.0,3,-0.07339529
33.63536,29.726677,5.5116634,27.0,11,-0.07339299
2.9678888,2.6220775,-0.48625872,29.0,4,-0.073390685
33.30191,29.411278,7.037049,19.0,12,-0.07338838
3.430255,3.0295012,-0.4003935,30.0,5,-0.07338607
4.0836124,3.6039913,-0.28544036,32.0,6,-0.07338147
33.131084,29.229544,10.20018,25.0,14,-0.07337917
4.9297204,4.3476634,-0.114732124,24.0,7,-0.07337686
33.623543,29.643148,12.010757,15.0,15,-0.073374555
1.875707,1.6495905,-0.6693061,39.0,0,-0.07335382
6.09446,5.357887,0.14164373,55.0,8,-0.07335152
2.116647,1.8601735,-0.6505585,28.0,1,-0.073349215
9.385432,8.245307,0.65472287,48.0,9,-0.073346905
2.37315,2.0848641,-0.6140234,38.0,2,-0.0733446
15.203937,13.352291,1.7703073,24.0,10,-0.0733423
2.7225456,2.3901303,-0.5738017,37.0,3,-0.07334
33.976147,29.817286,5.550418,27.0,11,-0.07333769
2.8665984,2.5148258,-0.46822205,21.0,4,-0.07333539
33.18903,29.105988,6.9916825,19.0,12,-0.073333085
3.500728,3.0700548,-0.40736595,34.0,5,-0.07333078
33.45247,29.326717,8.647465,22.0,13,-0.07332847
4.151744,3.6384208,-0.2893132,39.0,6,-0.07332617
33.165493,29.05464,10.179485,35.0,14,-0.07332387
4.935839,4.322525,-0.11452269,26.0,7,-0.073321566
33.101776,28.978434,11.788173,14.0,15,-0.07331926
1.8843645,1.6455741,-0.6703414,45.0,0,-0.07329852
6.0814924,5.3089623,0.14091073,62.0,8,-0.07329622
2.0790775,1.8143356,-0.63706136,42.0,1,-0.07329392
9.317835,8.128465,0.6480239,37.0,9,-0.073291615
2.3582222,2.0572083,-0.60829914,32.0,2,-0.073289305
14.894573,12.988786,1.7289956,16.0,10,-0.073287
2.710024,2.3624415,-0.5694215,39.0,3,-0.0732847
34.172817,29.779352,5.56553,18.0,11,-0.0732824
2.9367287,2.5582635,-0.47821537,30.0,4,-0.07328009
33.445335,29.124897,7.024221,19.0,12,-0.07327779
3.4408019,2.9963222,-0.39917332,34.0,5,-0.073275484
33.471718,29.137571,8.626094,22.0,13,-0.07327318
4.2005796,3.655372,-0.29182532,42.0,6,-0.07327087
33.53134,29.168936,10.260468,35.0,14,-0.07326857
4.8513074,4.218664,-0.112218976,28.0,7,-0.07326627
33.19982,28.860168,11.787138,29.0,15,-0.073263966
1.9046928,1.651642,-0.67551774,50.0,0,-0.07324323
6.1317167,5.315209,0.14164373,55.0,8,-0.07324092
2.0662532,1.7904764,-0.63121265,41.0,1,-0.07323862
9.454847,8.190041,0.65556026,40.0,9,-0.07323632
2.3742929,2.0566757,-0.6105888,31.0,2,-0.073234014
15.170264,13.136266,1.7556653,24.0,10,-0.073231705
2.6928644,2.3309884,-0.56410277,37.0,3,-0.0732294
34.243538,29.631298,5.5601673,27.0,11,-0.0732271
2.9861765,2.5830617,-0.4847963,33.0,4,-0.0732248
33.585655,29.041557,7.032356,9.0,12,-0.07322249
3.4527478,2.9855952,-0.3993476,33.0,5,-0.073220186
33.579174,29.025682,8.627621,22.0,13,-0.07321788
4.009297,3.464399,-0.2776946,30.0,6,-0.07321558
33.49581,28.933233,10.218627,10.0,14,-0.07321328
4.943195,4.2683554,-0.11399912,28.0,7,-0.07321097
1.9177653,1.6512873,-0.67810595,42.0,0,-0.07318793
6.1199226,5.2676806,0.14094563,55.0,8,-0.07318563
2.071013,1.7819823,-0.63076276,47.0,1,-0.07318332
9.448643,8.129991,0.6532574,33.0,9,-0.07318102
2.384433,2.0509377,-0.6113521,31.0,2,-0.073178716
14.830795,12.751991,1.7112159,10.0,10,-0.073176414
2.7039812,2.324149,-0.5647285,37.0,3,-0.073174104
33.797184,29.039415,5.471203,36.0,11,-0.0731718
2.988703,2.5679708,-0.48382133,33.0,4,-0.0731695
34.119347,29.30585,7.1237135,10.0,12,-0.0731672
3.5387306,3.0384195,-0.40806317,35.0,5,-0.073164895
4.1926494,3.5973449,-0.28952253,30.0,6,-0.07316028
33.69363,28.90955,10.24967,5.0,14,-0.07315798
4.905714,4.207677,-0.112812355,36.0,7,-0.07315568
33.80906,28.988132,11.933111,30.0,15,-0.07315337
1.914422,1.637384,-0.6750001,43.0,0,-0.073132634
6.1039186,5.21877,0.14017773,60.0,8,-0.07313033
2.0932057,1.7890327,-0.63571167,50.0,1,-0.07312803
9.300947,7.949385,0.6412202,32.0,9,-0.07312573
2.3270376,1.9881809,-0.59494245,41.0,2,-0.07312342
14.651804,12.513825,1.6857663,13.0,10,-0.073121116
2.696649,2.3023448,-0.5615998,38.0,3,-0.07311881
33.452404,28.550873,5.400031,8.0,11,-0.07311651
3.092328,2.6392322,-0.49917686,47.0,4,-0.0731142
34.225353,29.200243,7.125591,10.0,12,-0.0731119
3.494213,2.9801245,-0.40178797,48.0,5,-0.0731096
33.961205,28.9544,8.67494,22.0,13,-0.073107295
4.11639,3.5082824,-0.2834516,29.0,6,-0.073104985
33.67955,28.704123,10.216376,25.0,14,-0.07310268
4.8526664,4.1343236,-0.111276545,28.0,7,-0.07310038
33.9256,28.893385,11.940358,30.0,15,-0.07309808
1.9007015,1.6147667,-0.66827077,45.0,0,-0.07307734
6.0510798,5.1389537,0.13857211,55.0,8,-0.07307503
2.0768437,1.763163,-0.6289632,43.0,1,-0.07307273
9.133893,7.754335,0.6279268,24.0,9,-0.07307043
2.3800204,2.019834,-0.6067726,32.0,2,-0.07306813
14.70386,12.474189,1.6869866,20.0,10,-0.07306582
2.7148156,2.3023324,-0.56378984,46.0,3,-0.073063515
33.989037,28.814625,5.471203,9.0,11,-0.07306121
3.0586648,2.5930207,-0.49235216,30.0,4,-0.07305891
33.683037,28.545074,6.9929347,9.0,12,-0.0730566
3.5512023,3.0084455,-0.40719163,34.0,5,-0.0730543
4.1493435,3.512678,-0.28491697,34.0,6,-0.073049694
34.647633,29.331379,10.48047,10.0,14,-0.073047385
4.8693995,4.1207952,-0.11134635,28.0,7,-0.07304508
1.8839003,1.589766,-0.6605062,42.0,0,-0.073022045
6.077257,5.1265965,0.13878153,62.0,8,-0.07301974
2.1094942,1.7788793,-0.63706136,44.0,1,-0.07301743
9.103063,7.6763654,0.624054,30.0,9,-0.07301513
2.4137251,2.0347066,-0.61364174,31.0,2,-0.07301283
14.732952,12.4150915,1.6855919,23.0,10,-0.07301053
2.7012851,2.2754996,-0.55940974,43.0,3,-0.07300822
34.453392,29.012453,5.5304313,18.0,11,-0.073005915
3.039916,2.5598474,-0.4879649,31.0,4,-0.07300361
34.400127,28.95734,7.121836,10.0,12,-0.07300131
3.5443907,2.9825408,-0.40527418,34.0,5,-0.072999
4.1365104,3.4783332,-0.28324223,29.0,6,-0.072994396
34.274876,28.82126,10.338751,15.0,14,-0.072992094
4.8585477,4.084037,-0.11078788,28.0,7,-0.07298979
34.039574,28.603119,11.913442,15.0,15,-0.07298748
1.8796219,1.5738394,-0.65688276,40.0,0,-0.07300711
6.027894,5.045465,0.13721082,52.0,8,-0.073004805
2.1192987,1.7732669,-0.6379612,43.0,1,-0.0730025
9.069669,7.588805,0.6197625,31.0,9,-0.07300019
2.4019427,2.0090494,-0.6086807,39.0,2,-0.07299789
14.835545,12.404435,1.6918672,23.0,10,-0.07299559
2.7342527,2.2853806,-0.56441563,43.0,3,-0.072993286
34.218735,28.59103,5.4751024,9.0,11,-0.072990976
3.0242674,2.5259898,-0.48382133,29.0,4,-0.072988674
33.997112,28.395756,7.015774,19.0,12,-0.07298637
3.5665216,2.9778488,-0.40649435,45.0,5,-0.07298407
33.95507,28.340551,8.597091,21.0,13,-0.07298176
4.175907,3.4841757,-0.28502163,35.0,6,-0.07297946
34.39328,28.685944,10.33965,5.0,14,-0.072977155
4.898762,4.0858455,-0.11134635,28.0,7,-0.07297485
34.169914,28.489534,11.920688,15.0,15,-0.07297254
1.9044155,1.5833248,-0.66361207,33.0,0,-0.07295181
6.0722675,5.0484633,0.13783911,52.0,8,-0.07294951
2.0951939,1.7413174,-0.6289632,43.0,1,-0.072947204
8.951698,7.4371233,0.6099233,35.0,9,-0.0729449
2.4376364,2.0244853,-0.61593145,47.0,2,-0.07294259
14.7806425,12.271126,1.6807113,20.0,10,-0.07294029
2.749416,2.2826092,-0.56597996,32.0,3,-0.07293799
34.420296,28.566133,5.492164,9.0,11,-0.072935686
2.9929047,2.4829931,-0.47748414,29.0,4,-0.072933376
34.085377,28.268091,7.0135837,19.0,12,-0.07293107
3.4081743,2.8255038,-0.38732013,18.0,5,-0.07292877
4.2320337,3.5072684,-0.28805712,34.0,6,-0.07292416
33.560814,27.803411,10.06161,4.0,14,-0.07292186
4.8883543,4.048312,-0.11078788,28.0,7,-0.072919555
33.864403,28.034992,11.779891,14.0,15,-0.07291725
1.8709265,1.5450174,-0.65015346,35.0,0,-0.07289652
6.0590115,5.001774,0.137141,57.0,8,-0.07289421
2.1388352,1.765002,-0.6402107,48.0,1,-0.072891906
8.991715,7.4201117,0.61097,21.0,9,-0.0728896
2.4352503,2.0088942,-0.61364174,49.0,2,-0.0728873
14.762838,12.173879,1.6740874,23.0,10,-0.07288499
2.7192602,2.241586,-0.5581582,40.0,3,-0.07288269
34.547367,28.468538,5.4965515,54.0,11,-0.07288039
3.0567122,2.5179687,-0.48625872,29.0,4,-0.072878085
34.249058,28.212683,7.0279756,19.0,12,-0.072875775
3.5344157,2.9104419,-0.40056777,34.0,5,-0.07287347
34.195694,28.148697,8.6093025,22.0,13,-0.07287117
4.251961,3.4988208,-0.2885805,37.0,6,-0.07286887
33.558327,27.604395,10.031917,19.0,14,-0.07286657
4.8832192,4.016836,-0.11036902,30.0,7,-0.07286426
33.724415,27.73112,11.69914,29.0,15,-0.072861955
1.8449372,1.5127538,-0.63928306,38.0,0,-0.07284122
6.080205,4.985456,0.13724573,60.0,8,-0.07283892
2.1612554,1.7714878,-0.6451596,47.0,1,-0.07283661
8.960399,7.341845,0.60709715,31.0,9,-0.072834305
2.4255414,1.9866966,-0.60944396,49.0,2,-0.072832
14.368982,11.765063,1.6247573,9.0,10,-0.0728297
2.6915257,2.2037728,-0.5509622,32.0,3,-0.07282739
34.25754,28.039495,5.435617,35.0,11,-0.07282509
3.040464,2.4877045,-0.4823589,29.0,4,-0.07282279
34.261707,28.022915,7.010455,9.0,12,-0.072820485
3.5460951,2.8993485,-0.40074208,33.0,5,-0.07281818
4.2650876,3.485964,-0.28868517,35.0,6,-0.07281357
33.412766,27.299374,9.961283,9.0,14,-0.07281127
4.863137,3.9719381,-0.10960111,31.0,7,-0.072808966
33.823994,27.615679,11.700174,29.0,15,-0.07280666
1.8604289,1.5151675,-0.64290655,42.0,0,-0.07278592
6.1146274,4.978091,0.13762967,52.0,8,-0.07278362
2.158357,1.7565529,-0.6424602,53.0,1,-0.07278132
8.933298,7.2676663,0.60353833,30.0,9,-0.07277901
2.4412534,1.9860767,-0.6117337,47.0,2,-0.072776705
14.406371,11.716095,1.624583,22.0,10,-0.0727744
2.7083983,2.201841,-0.55283946,38.0,3,-0.0727721
34.35214,27.917233,5.4351296,53.0,11,-0.0727698
2.9921212,2.430765,-0.47334057,39.0,4,-0.07276749
33.916157,27.54327,6.9200363,27.0,12,-0.07276519
3.4969192,2.839844,-0.39411828,37.0,5,-0.072762884
4.2710276,3.4660194,-0.28826648,39.0,6,-0.07275827
33.36408,27.06595,9.918542,19.0,14,-0.07275597
4.8800793,3.9574564,-0.10967092,28.0,7,-0.07275367
1.873217,1.5147381,-0.64549476,46.0,0,-0.07273062
6.1039734,4.93409,0.1370014,50.0,8,-0.07272832
2.1584127,1.7441083,-0.6406606,50.0,1,-0.07272602
8.865393,7.1611347,0.597258,42.0,9,-0.07272372
2.4420629,1.9726077,-0.6102072,51.0,2,-0.072721414
14.400674,11.628189,1.6193538,22.0,10,-0.072719105
2.7160683,2.192373,-0.55283946,38.0,3,-0.0727168
35.595688,28.72209,5.6159835,9.0,11,-0.0727145
3.0314894,2.4452322,-0.47821537,28.0,4,-0.0727122
33.905994,27.339146,6.898448,18.0,12,-0.07270989
3.5130153,2.8326213,-0.3948155,31.0,5,-0.072707586
34.13524,27.514164,8.522293,21.0,13,-0.072705284
4.2053366,3.388437,-0.2830329,42.0,6,-0.07270298
33.36123,26.871078,9.889748,38.0,14,-0.07270067
4.873616,3.9240925,-0.10921716,22.0,7,-0.07269837
33.01668,26.57459,11.3564625,13.0,15,-0.07269607
1.8935574,1.520284,-0.6506711,39.0,0,-0.07267533
6.072816,4.8739505,0.13591935,60.0,8,-0.07267303
2.1568863,1.7304673,-0.6384111,47.0,1,-0.07267072
8.863847,7.108904,0.59547853,26.0,9,-0.07266842
2.456591,1.9702133,-0.6121153,51.0,2,-0.072666116
14.316818,11.478144,1.6054087,22.0,10,-0.072663814
2.7098303,2.1717627,-0.5500237,45.0,3,-0.072661504
34.57718,27.70155,5.440004,8.0,11,-0.0726592
3.0694463,2.4582114,-0.48284638,30.0,4,-0.0726569
3.6198192,2.8969123,-0.4056228,27.0,5,-0.07265229
33.881584,27.11516,8.435285,20.0,13,-0.072649986
4.2171397,3.3737357,-0.2830329,39.0,6,-0.07264768
33.600933,26.871298,9.932939,14.0,14,-0.07264538
4.8638544,3.8883278,-0.108693585,18.0,7,-0.07264307
32.91306,26.302385,11.28917,26.0,15,-0.07264077
1.9142249,1.5253733,-0.6558475,38.0,0,-0.072620034
6.1351433,4.8888636,0.13693158,50.0,8,-0.07261773
2.1583414,1.7192848,-0.63706136,50.0,1,-0.07261543
8.66362,6.8987613,0.5804058,62.0,9,-0.07261312
2.4422905,1.9440792,-0.6067726,55.0,2,-0.07261082
14.193531,11.294097,1.5869317,25.0,10,-0.072608516
2.7177734,2.1618137,-0.5500237,49.0,3,-0.07260621
30.752516,24.461647,4.8248076,6.0,11,-0.0726039
3.056255,2.430186,-0.47943404,37.0,4,-0.0726016
34.19808,27.182913,6.9190974,9.0,12,-0.0725993
3.4785984,2.7640285,-0.38871458,31.0,5,-0.072597
4.2357326,3.3632252,-0.2834516,40.0,6,-0.072592385
33.722084,26.766142,9.939687,9.0,14,-0.07259008
4.7583613,3.7768416,-0.10604082,19.0,7,-0.07258778
33.80675,26.823729,11.563518,14.0,15,-0.07258548
1.9225682,1.5210788,-0.65688276,34.0,0,-0.072564736
6.058915,4.791915,0.1348373,62.0,8,-0.072562434
2.1630993,1.7101545,-0.63661146,51.0,1,-0.07256013
8.594828,6.7926583,0.57412547,36.0,9,-0.07255783
2.4552236,1.9404109,-0.60829914,48.0,2,-0.07255552
14.076535,11.120969,1.5695007,21.0,10,-0.07255322
2.722201,2.1498673,-0.5493979,43.0,3,-0.072550915
35.659508,28.152079,5.578448,9.0,11,-0.07254861
3.0542343,2.4103587,-0.47772786,32.0,4,-0.0725463
3.5867705,2.8296156,-0.39969626,31.0,5,-0.0725417
4.2348995,3.338526,-0.28261417,40.0,6,-0.072537094
33.87345,26.694124,9.956783,9.0,14,-0.072534785
4.8758454,3.841049,-0.10834454,18.0,7,-0.07253248
33.96554,26.747458,11.584224,28.0,15,-0.07253018
1.9233088,1.5107781,-0.6553298,35.0,0,-0.072509445
6.1385145,4.820137,0.13623348,60.0,8,-0.072507136
2.1292007,1.6713085,-0.62491405,44.0,1,-0.07250483
8.687625,6.816863,0.57873106,30.0,9,-0.07250253
2.4650714,1.9342518,-0.6090624,59.0,2,-0.07250023
13.942822,10.936506,1.5503262,21.0,10,-0.07249792
2.746789,2.153759,-0.55283946,34.0,3,-0.07249562
3.0610666,2.3984592,-0.47748414,30.0,4,-0.07249101
3.5181997,2.7556493,-0.39098063,28.0,5,-0.0724864
4.1395774,3.2400157,-0.2754965,31.0,6,-0.072481796
33.839046,26.476044,9.919441,19.0,14,-0.072479494
4.7899914,3.7463908,-0.10614554,21.0,7,-0.072477184
34.08,26.645397,11.591471,28.0,15,-0.07247488
1.9498967,1.5206891,-0.6625768,31.0,0,-0.07245415
6.1537275,4.797449,0.13619858,60.0,8,-0.072451845
2.181135,1.6998019,-0.6384111,45.0,1,-0.072449535
8.754291,6.8223934,0.5816619,35.0,9,-0.07244723
2.4687095,1.9232241,-0.60829914,52.0,2,-0.07244493
13.861448,10.794729,1.5370787,18.0,10,-0.07244263
2.7028525,2.104113,-0.5425148,30.0,3,-0.072440326
3.1285343,2.434623,-0.4867462,27.0,4,-0.072435714
34.256348,26.64864,6.874044,9.0,12,-0.07243341
3.4428666,2.6773047,-0.38156784,28.0,5,-0.07243111
4.176096,3.2451532,-0.27717125,33.0,6,-0.0724265
33.791252,26.25845,9.87985,14.0,14,-0.072424196
4.813442,3.739074,-0.106389865,24.0,7,-0.07242189
33.994236,26.397158,11.532459,14.0,15,-0.072419584
1.9350743,1.4988353,-0.6558475,40.0,0,-0.07239885
6.107937,4.7292714,0.1348373,57.0,8,-0.07239655
2.1944647,1.698524,-0.6406606,40.0,1,-0.072394244
8.696315,6.730981,0.57632357,32.0,9,-0.07239194
2.4564412,1.9006094,-0.60371965,55.0,2,-0.07238963
13.941295,10.782837,1.5419594,25.0,10,-0.07238733
2.7066891,2.0927224,-0.5418891,34.0,3,-0.07238503
37.91396,29.303251,5.883609,20.0,11,-0.072382726
3.0612,2.3659651,-0.47504675,29.0,4,-0.072380416
3.4864175,2.692665,-0.3854027,32.0,5,-0.07237581
4.158373,3.2093227,-0.27528715,36.0,6,-0.0723712
34.08024,26.30223,9.938787,9.0,14,-0.0723689
4.846399,3.7389696,-0.106843635,31.0,7,-0.072366595
33.081116,25.512714,11.193925,25.0,15,-0.07236429
1.9721891,1.5171466,-0.6667179,42.0,0,-0.07234356
6.0490837,4.651696,0.13319677,60.0,8,-0.07234125
2.1830897,1.6781738,-0.63571167,41.0,1,-0.072338946
8.757764,6.7297935,0.5788357,25.0,9,-0.072336644
2.4502761,1.8828838,-0.60066676,52.0,2,-0.07233434
13.923257,10.695276,1.5360328,25.0,10,-0.07233203
2.7700164,2.1270468,-0.5531523,28.0,3,-0.07232973
37.740074,28.969467,5.841686,10.0,11,-0.07232743
3.091489,2.3721826,-0.47845906,33.0,4,-0.072325125
34.007465,26.08544,6.7883177,8.0,12,-0.072322816
3.5495522,2.721699,-0.3913293,32.0,5,-0.07232051
34.42806,26.398489,8.432995,20.0,13,-0.07231821
4.281541,3.2817812,-0.28271887,39.0,6,-0.07231591
34.232166,26.229338,9.956334,4.0,14,-0.0723136
4.8483067,3.7135193,-0.1065993,26.0,7,-0.0723113
33.08101,25.328957,11.163901,25.0,15,-0.072308995
1.9700594,1.5040462,-0.66412973,40.0,0,-0.07228826
6.093893,4.6523957,0.13382505,62.0,8,-0.07228596
2.1718943,1.6575376,-0.63076276,40.0,1,-0.07228365
8.604944,6.564711,0.5672171,31.0,9,-0.072281346
2.486822,1.8965096,-0.6079175,45.0,2,-0.07227904
13.84511,10.5547905,1.5231338,21.0,10,-0.07227674
2.7290888,2.079762,-0.5434534,29.0,3,-0.07227443
35.59265,27.12416,5.4946017,9.0,11,-0.07227213
3.0934339,2.3565657,-0.47748414,38.0,4,-0.07226983
33.862587,25.787048,6.7413874,17.0,12,-0.072267525
3.4464731,2.6236088,-0.37895316,30.0,5,-0.072265215
25.330208,19.275501,6.187173,32.0,13,-0.07226291
4.2808223,3.2563934,-0.28188148,39.0,6,-0.07226061
35.36893,26.895172,10.258218,10.0,14,-0.07225831
4.8548727,3.6917324,-0.106459685,29.0,7,-0.07225601
33.22766,25.257761,11.183572,12.0,15,-0.0722537
1.9845346,1.5041622,-0.6672355,45.0,0,-0.07223296
6.102936,4.62399,0.13365053,57.0,8,-0.07223066
2.1624198,1.6378007,-0.62626374,59.0,1,-0.07222836
8.449487,6.399578,0.5554939,21.0,9,-0.07222605
2.48247,1.8795226,-0.6052462,41.0,2,-0.072223745
13.929534,10.542465,1.5283631,24.0,10,-0.07222144
2.7473588,2.0785666,-0.54564345,34.0,3,-0.07221914
34.35871,25.985283,5.2893734,8.0,11,-0.07221683
3.1305535,2.3667598,-0.48187143,38.0,4,-0.07221453
33.944527,25.662727,6.7398233,17.0,12,-0.07221223
3.579592,2.7052624,-0.39254946,34.0,5,-0.072209924
25.414576,19.199978,6.1913705,43.0,13,-0.07220762
4.285789,3.2366152,-0.2814628,35.0,6,-0.07220531
35.601013,26.876053,10.29826,30.0,14,-0.07220301
4.915608,3.7109094,-0.10750683,28.0,7,-0.07220071
33.33722,25.157904,11.190819,12.0,15,-0.072198406
1.9897727,1.4972261,-0.6672355,47.0,0,-0.07217766
6.0974607,4.5881004,0.13319677,60.0,8,-0.07217536
2.1491513,1.6165633,-0.6208649,46.0,1,-0.07217306
8.784658,6.605304,0.5760096,30.0,9,-0.07217076
2.4858773,1.8684858,-0.60448295,50.0,2,-0.072168455
13.669973,10.271172,1.4959412,21.0,10,-0.072166145
2.7700295,2.0813098,-0.54877216,43.0,3,-0.07216384
34.65103,26.026192,5.3210597,50.0,11,-0.07216154
3.0780613,2.3110743,-0.47260937,33.0,4,-0.07215924
34.070225,25.571358,6.7470193,8.0,12,-0.07215693
3.5762649,2.6831844,-0.39115497,31.0,5,-0.072154626
25.410576,19.064936,6.1749616,54.0,13,-0.072152324
4.2421722,3.1816418,-0.27790397,33.0,6,-0.07215002
35.622906,26.707573,10.2789135,10.0,14,-0.07214771
4.8869276,3.662546,-0.1065993,29.0,7,-0.07214541
33.885567,25.386566,11.345075,26.0,15,-0.07214311
2.010202,1.502183,-0.67241186,48.0,0,-0.07212237
6.1486855,4.593115,0.13396467,62.0,8,-0.07212007
2.1469743,1.603221,-0.61861545,43.0,1,-0.07211776
8.726033,6.5136695,0.5706713,37.0,9,-0.07211546
2.4826198,1.8531862,-0.60219324,42.0,2,-0.07211316
13.483593,10.061353,1.4718862,21.0,10,-0.072110854
2.7709448,2.0669026,-0.5475207,39.0,3,-0.072108544
34.432934,25.674883,5.2737746,24.0,11,-0.07210624
3.1163495,2.3228567,-0.47724038,27.0,4,-0.07210394
34.157707,25.451088,6.7467065,17.0,12,-0.07210164
3.6985767,2.755829,-0.40353107,41.0,5,-0.07209933
25.469099,18.97025,6.173053,10.0,13,-0.072097026
4.226018,3.146538,-0.2761245,31.0,6,-0.07209472
33.925983,25.250818,9.763776,4.0,14,-0.07209242
4.886849,3.6359143,-0.10632006,26.0,7,-0.07209011
34.057674,25.330389,11.373027,13.0,15,-0.07208781
2.0123308,1.4928545,-0.67137665,44.0,0,-0.072067074
6.1518326,4.5620933,0.13368544,57.0,8,-0.07206477
2.1494253,1.5933973,-0.6177156,29.0,1,-0.07206247
8.764767,6.49506,0.57171804,30.0,9,-0.07206016
2.4922285,1.846846,-0.6029565,42.0,2,-0.07205786
13.432182,9.950181,1.4624733,17.0,10,-0.072055556
2.7876666,2.064273,-0.5493979,43.0,3,-0.07205325
37.962303,28.100882,5.799275,10.0,11,-0.072050944
3.1180565,2.3072407,-0.47626543,28.0,4,-0.07204864
34.139915,25.253016,6.7257442,17.0,12,-0.07204634
3.5576031,2.6315296,-0.38714582,23.0,5,-0.07204404
25.060005,18.529898,6.058186,31.0,13,-0.07204173
4.1855807,3.0937767,-0.27277502,33.0,6,-0.072039425
34.27094,25.322184,9.83756,18.0,14,-0.07203712
4.880208,3.6045783,-0.105901204,28.0,7,-0.07203482
34.149,25.213636,11.374063,27.0,15,-0.07203251
2.0019746,1.4743646,-0.6662002,44.0,0,-0.072011776
6.1435633,4.52281,0.13316187,50.0,8,-0.072009474
2.1596832,1.5893492,-0.6190653,42.0,1,-0.07200717
8.779342,6.458505,0.5711947,45.0,9,-0.07200487
2.4923348,1.8334812,-0.60143,50.0,2,-0.07200256
13.569557,9.978778,1.4736292,18.0,10,-0.07200026
2.76939,2.0358088,-0.544392,41.0,3,-0.071997955
36.51332,26.831497,5.5635796,18.0,11,-0.07199565
3.0892944,2.2693136,-0.47065943,29.0,4,-0.07199334
34.162586,25.085747,6.712917,17.0,12,-0.07199104
3.508954,2.5766416,-0.3808706,47.0,5,-0.07198874
25.227411,18.517815,6.082991,21.0,13,-0.07198644
4.133553,3.0330677,-0.26869282,31.0,6,-0.07198413
32.97477,24.186968,9.4411955,35.0,14,-0.071981825
4.9879074,3.6572835,-0.10796059,21.0,7,-0.07197952
34.31782,25.153675,11.40098,13.0,15,-0.07197722
2.003989,1.4650886,-0.665165,47.0,0,-0.071956486
6.212593,4.5402727,0.13431372,55.0,8,-0.071954176
2.1966896,1.6047915,-0.6280633,40.0,1,-0.07195187
8.65989,6.324171,0.5619836,30.0,9,-0.07194957
2.5018895,1.8270875,-0.60219324,49.0,2,-0.07194727
13.4627,9.82797,1.4582899,17.0,10,-0.07194496
2.7764802,2.0261288,-0.544392,49.0,3,-0.07194266
35.046307,25.565601,5.3264217,8.0,11,-0.071940355
3.1324842,2.2842467,-0.47602168,29.0,4,-0.07193805
34.42075,25.090841,6.7463937,8.0,12,-0.07193574
3.6435099,2.655919,-0.39446688,33.0,5,-0.07193344
25.567968,18.630835,6.1493926,21.0,13,-0.07193114
4.1086,2.9927485,-0.26639003,16.0,6,-0.07192884
33.068455,24.07859,9.443895,35.0,14,-0.071926534
4.9828568,3.626909,-0.10757664,28.0,7,-0.071924224
35.333317,25.708866,11.708457,14.0,15,-0.07192192
2.0090911,1.4580839,-0.665165,47.0,0,-0.07190119
6.192791,4.492729,0.13354582,47.0,8,-0.071898885
2.1533732,1.5616482,-0.6141164,39.0,1,-0.071896575
8.729321,6.3305926,0.5651237,35.0,9,-0.07189427
2.5146103,1.8229517,-0.60371965,51.0,2,-0.07189197
13.242023,9.59619,1.4307486,23.0,10,-0.07188967
2.7931335,2.0233784,-0.5462692,47.0,3,-0.07188736
34.897392,25.270792,5.290349,8.0,11,-0.07188506
3.095415,2.2407055,-0.469197,30.0,4,-0.071882755
34.175743,24.739098,6.6822557,16.0,12,-0.07188045
3.6398454,2.6338418,-0.3930724,31.0,5,-0.07187815
25.830101,18.684145,6.1967134,10.0,13,-0.07187584
4.2857256,3.0989277,-0.27717125,25.0,6,-0.07187354
33.131767,23.948181,9.438046,30.0,14,-0.071871236
4.907342,3.5471065,-0.105691776,29.0,7,-0.071868934
33.58004,24.263275,11.10075,12.0,15,-0.071866624
2.020438,1.4555794,-0.6672355,47.0,0,-0.07184589
6.322853,4.555158,0.13602406,70.0,8,-0.07184359
2.1964922,1.5818313,-0.62491405,39.0,1,-0.071841285
8.626555,6.2102294,0.55706394,37.0,9,-0.07183898
2.5034294,1.8015493,-0.5995219,45.0,2,-0.07183667
13.294841,9.563879,1.4328403,20.0,10,-0.07183437
2.8190703,2.0279481,-0.5500237,45.0,3,-0.07183207
34.953606,25.135216,5.2862053,16.0,11,-0.071829766
3.138288,2.2559211,-0.47455928,33.0,4,-0.07182746
34.010017,24.438698,6.633135,8.0,12,-0.071825154
3.674909,2.639717,-0.3958614,31.0,5,-0.07182285
25.872787,18.584635,6.1921334,10.0,13,-0.07182055
4.2489295,3.050917,-0.27413577,34.0,6,-0.07181824
33.217327,23.842731,9.439846,30.0,14,-0.07181594
5.036676,3.613889,-0.10820492,28.0,7,-0.071813636
33.727325,24.190939,11.121454,12.0,15,-0.07181133
2.0142553,1.4410037,-0.66361207,50.0,0,-0.0717906
6.281787,4.4923453,0.13480239,67.0,8,-0.07178829
2.2226098,1.5888867,-0.63076276,40.0,1,-0.07178599
8.658475,6.189722,0.5577967,28.0,9,-0.071783684
2.517376,1.7989455,-0.60143,39.0,2,-0.07178138
13.33297,9.524367,1.4335376,23.0,10,-0.07177907
2.8036265,2.0020235,-0.54564345,46.0,3,-0.07177677
35.32387,25.214888,5.3288593,17.0,11,-0.07177447
3.1800776,2.2691655,-0.47967777,36.0,4,-0.071772166
3.5473905,2.5303297,-0.3812192,28.0,5,-0.07176755
25.956682,18.507893,6.1967134,10.0,13,-0.07176525
4.2530465,3.0314305,-0.27371708,28.0,6,-0.07176295
33.31623,23.737934,9.4443445,30.0,14,-0.07176064
4.990002,3.5553944,-0.106948346,26.0,7,-0.07175834
33.835682,24.099142,11.130772,25.0,15,-0.071756035
2.0208488,1.4350818,-0.66412973,48.0,0,-0.0717353
6.210237,4.4101267,0.13295244,62.0,8,-0.071733
2.2151544,1.5724827,-0.6271635,40.0,1,-0.07173069
8.6604805,6.1455913,0.5565406,31.0,9,-0.071728386
2.5060263,1.7776518,-0.59723216,34.0,2,-0.071726084
13.348261,9.46509,1.4316202,28.0,10,-0.07172378
2.7876914,1.9767181,-0.54126334,40.0,3,-0.07172147
34.83398,24.69124,5.2425756,16.0,11,-0.07171917
3.1811059,2.2540176,-0.4787028,40.0,4,-0.07171687
34.40449,24.368748,6.677562,8.0,12,-0.071714565
3.5171754,2.490301,-0.37703574,25.0,5,-0.071712255
4.1130934,2.911157,-0.26408726,22.0,6,-0.07170765
33.588852,23.764627,9.499233,13.0,14,-0.07170535
4.915852,3.4767575,-0.1050984,22.0,7,-0.07170305
33.70191,23.826994,11.059339,25.0,15,-0.07170074
2.0197783,1.4232137,-0.6620591,48.0,0,-0.07159042
6.245109,4.3989134,0.13333638,60.0,8,-0.07158812
2.2275493,1.5684537,-0.6289632,47.0,1,-0.07158582
8.607828,6.060912,0.55172575,35.0,9,-0.07158351
2.5285797,1.7797543,-0.60104835,34.0,2,-0.07158121
13.250872,9.323238,1.4175009,23.0,10,-0.071578905
2.7564821,1.9387262,-0.53375447,55.0,3,-0.0715766
34.951275,24.573286,5.245988,32.0,11,-0.07157429
3.2059789,2.2531998,-0.4811402,37.0,4,-0.07157199
34.493572,24.24249,6.677562,8.0,12,-0.07156969
3.5588853,2.5002992,-0.38052195,28.0,5,-0.07156739
4.0686636,2.856324,-0.26052842,15.0,6,-0.071562774
33.6639,23.624296,9.494734,17.0,14,-0.07156047
4.851631,3.4047267,-0.10345787,17.0,7,-0.07155817
33.461643,23.473646,10.952188,24.0,15,-0.07155586
2.029483,1.4194769,-0.66361207,46.0,0,-0.071535125
6.2842407,4.395373,0.13385996,57.0,8,-0.07153282
2.2471116,1.5711085,-0.6330123,45.0,1,-0.07153052
8.556901,5.9804873,0.54712015,26.0,9,-0.07152822
2.5122454,1.7551762,-0.59570575,31.0,2,-0.07152591
12.943577,9.039639,1.3812442,16.0,10,-0.07152361
2.7823305,1.9431463,-0.5375089,32.0,3,-0.071521305
34.93979,24.392485,5.2320952,56.0,11,-0.071519
3.2264555,2.251645,-0.48309013,37.0,4,-0.07151669
3.5904703,2.5038168,-0.38296232,37.0,5,-0.07151209
4.0486207,2.822258,-0.25864434,19.0,6,-0.071507476
33.79642,23.550406,9.510031,35.0,14,-0.071505174
5.0423384,3.5123556,-0.10726249,22.0,7,-0.07150287
33.535446,23.351187,10.949599,24.0,15,-0.07150057
2.0246592,1.4061265,-0.6605062,45.0,0,-0.071479835
6.245337,4.3357787,0.1327081,67.0,8,-0.071477525
2.2493806,1.5610323,-0.6321125,50.0,1,-0.07147522
8.482545,5.8845506,0.5410492,31.0,9,-0.07147292
2.5261178,1.7524301,-0.5976138,38.0,2,-0.07147062
12.999674,9.014843,1.3840332,16.0,10,-0.07146831
2.7712383,1.9210438,-0.53406733,32.0,3,-0.07146601
35.160152,24.364206,5.2523255,16.0,11,-0.071463704
3.2179768,2.2290661,-0.48065275,42.0,4,-0.0714614
3.5348709,2.447661,-0.37616417,30.0,5,-0.07145679
33.735077,23.350565,7.9750533,17.0,13,-0.07145449
4.111006,2.8444731,-0.26199383,16.0,6,-0.071452186
34.013046,23.525414,9.547822,30.0,14,-0.07144988
5.0792413,3.5117905,-0.10778606,24.0,7,-0.07144757
35.08202,24.24668,11.426861,13.0,15,-0.07144527
2.024783,1.3957617,-0.6589533,48.0,0,-0.07142454
6.2538486,4.3094115,0.13256848,65.0,8,-0.071422234
2.2724688,1.5653315,-0.63706136,47.0,1,-0.071419924
8.463553,5.827723,0.5385371,26.0,9,-0.07141762
2.5403042,1.7491695,-0.5995219,33.0,2,-0.07141532
13.173848,9.067687,1.3991983,25.0,10,-0.07141302
2.7811813,1.9135988,-0.53469306,30.0,3,-0.07141071
35.074883,24.12434,5.226977,8.0,11,-0.071408406
3.1897514,2.1930764,-0.47529048,37.0,4,-0.0714061
3.6599736,2.5154314,-0.3885403,38.0,5,-0.0714015
33.89081,23.283813,7.992607,17.0,13,-0.07139919
4.3102436,2.9601352,-0.27403107,31.0,6,-0.07139689
34.20582,23.482635,9.578865,9.0,14,-0.071394585
4.901857,3.3639185,-0.10377201,22.0,7,-0.07139228
34.50373,23.669464,11.211524,13.0,15,-0.07138997
2.0057275,1.3723217,-0.65118873,37.0,0,-0.07136924
6.3084683,4.314647,0.13340619,67.0,8,-0.071366936
2.2730927,1.5540905,-0.63571167,50.0,1,-0.071364634
8.569591,5.856742,0.54397994,28.0,9,-0.071362324
2.4718347,1.6893336,-0.5819675,24.0,2,-0.07136002
12.34173,8.431588,1.3076848,2.0,10,-0.07135772
2.71933,1.8570899,-0.52155256,32.0,3,-0.07135542
34.840824,23.78462,5.1796913,32.0,11,-0.071353115
3.197388,2.1819277,-0.47529048,42.0,4,-0.071350805
26.019926,17.749607,4.9886956,5.0,12,-0.0713485
3.6209998,2.4700809,-0.38348526,30.0,5,-0.0713462
27.208002,18.553082,6.4012604,11.0,13,-0.0713439
4.176973,2.8472018,-0.26492465,30.0,6,-0.07134159
4.9466248,3.3693006,-0.104470104,19.0,7,-0.071336985
33.73982,22.972626,10.937176,12.0,15,-0.07133468
2.0312817,1.3794215,-0.65791804,37.0,0,-0.07131394
6.2209105,4.2229676,0.1312421,67.0,8,-0.07131164
2.262379,1.5352036,-0.63121265,56.0,1,-0.071309336
8.385026,5.6877685,0.5310007,30.0,9,-0.07130703
2.5345817,1.7192689,-0.5953241,30.0,2,-0.07130473
12.463432,8.4510765,1.3174462,5.0,10,-0.07130242
2.8026488,1.8996773,-0.53625745,39.0,3,-0.07130012
34.849678,23.612757,5.168723,55.0,11,-0.07129782
3.2099154,2.174094,-0.47602168,45.0,4,-0.071295515
26.039202,17.629871,4.9805613,25.0,12,-0.071293205
3.6114526,2.4451382,-0.38156784,26.0,5,-0.0712909
34.088318,23.070837,8.001003,17.0,13,-0.0712886
4.400283,2.976977,-0.2784273,36.0,6,-0.0712863
34.054134,23.030397,9.491135,4.0,14,-0.07128399
4.915284,3.3228936,-0.103562586,22.0,7,-0.07128169
26.008703,17.576143,8.411101,13.0,15,-0.071279384
2.0120547,1.3561273,-0.65015346,41.0,0,-0.07125865
6.232298,4.1989903,0.13117228,60.0,8,-0.07125635
2.2531765,1.5175002,-0.6271635,49.0,1,-0.07125404
8.408141,5.660697,0.53121,26.0,9,-0.071251735
2.5340528,1.7060258,-0.5937976,32.0,2,-0.07124943
12.65154,8.514306,1.3341801,11.0,10,-0.07124713
2.8158193,1.8942922,-0.5375089,45.0,3,-0.07124482
34.829754,23.42229,5.153611,39.0,11,-0.07124252
3.151587,2.1185768,-0.46627215,38.0,4,-0.07124022
26.08583,17.528948,4.977745,10.0,12,-0.071237914
3.5438962,2.381399,-0.37354952,25.0,5,-0.071235605
26.355766,17.703678,6.1715264,10.0,13,-0.0712333
4.297895,2.8858879,-0.2713096,24.0,6,-0.071231
26.511703,17.794981,7.371646,31.0,14,-0.0712287
4.9633827,3.3302305,-0.10433049,21.0,7,-0.07122639
26.16777,17.550884,8.4426775,28.0,15,-0.071224086
2.0504966,1.3716516,-0.66102386,31.0,0,-0.07120335
6.266862,4.190553,0.13159114,62.0,8,-0.07120105
2.2779016,1.5226206,-0.63256234,50.0,1,-0.07119875
8.346478,5.576939,0.5260811,43.0,9,-0.07119644
2.4910214,1.6644475,-0.58234906,29.0,2,-0.071194135
12.936325,8.640521,1.3610241,19.0,10,-0.07119183
2.8404853,1.8965181,-0.5409505,38.0,3,-0.07118953
34.92782,23.311583,5.156049,23.0,11,-0.07118722
3.1886852,2.1273954,-0.47065943,38.0,4,-0.07118492
35.466705,23.653358,6.752025,8.0,12,-0.071182616
3.5787077,2.3867018,-0.3763385,26.0,5,-0.071180314
27.087152,18.05806,6.32799,11.0,13,-0.071178004
4.2597446,2.8387465,-0.26827416,24.0,6,-0.0711757
