x,y,z,intensity,ring,time
1.1950728,-36.4084,1.9091111,45.0,9,-0.046059016
0.16727287,-5.1233273,-0.9964046,33.0,2,-0.04605671
1.186785,-36.54507,3.1989644,8.0,10,-0.046054408
0.201516,-6.2389374,-0.98866594,38.0,3,-0.046052102
1.1618526,-35.970966,4.418983,29.0,11,-0.0460498
0.24915384,-7.755725,-0.9527746,45.0,4,-0.046047494
1.1602039,-36.3126,5.754286,12.0,12,-0.04604519
0.35017762,-11.020322,-0.9646398,37.0,5,-0.046042886
1.1106602,-35.146305,6.8351603,12.0,13,-0.046040583
0.5417219,-17.237822,-0.90384203,26.0,6,-0.046038277
1.0934333,-34.98814,8.081592,26.0,14,-0.046035975
1.2333957,-39.466717,-0.68923044,10.0,7,-0.046033673
1.0469403,-33.68875,9.031232,7.0,15,-0.046031367
0.12717542,-4.336031,-1.0014821,27.0,1,-0.046006024
1.0583568,-36.300735,1.9032495,22.0,9,-0.046003718
0.15041783,-5.1592035,-1.0032737,33.0,2,-0.046001416
1.0566753,-36.461357,3.1912947,23.0,10,-0.04599911
0.17985114,-6.2435517,-0.98929167,38.0,3,-0.045996808
1.0307469,-36.000782,4.4221516,5.0,11,-0.0459945
0.2233233,-7.847863,-0.9639866,48.0,4,-0.0459922
1.0303979,-36.43311,5.772745,18.0,12,-0.045989893
0.31610185,-11.176822,-0.9782361,39.0,5,-0.04598759
0.48645234,-17.4153,-0.9130532,30.0,6,-0.045982983
0.97540784,-35.13979,8.115785,26.0,14,-0.04598068
1.0914956,-39.57092,-0.6909757,10.0,7,-0.045978375
0.9401829,-34.3026,9.194805,8.0,15,-0.045976073
0.110177174,-4.2643695,-0.98483574,25.0,1,-0.045950726
0.13205585,-5.145959,-1.0006025,34.0,2,-0.045946117
0.93228334,-36.578358,3.2012305,24.0,10,-0.045943815
0.1582565,-6.2520404,-0.9905431,36.0,3,-0.04594151
0.92073745,-36.62728,4.4986854,12.0,11,-0.045939207
0.19513492,-7.8168435,-0.96008676,45.0,4,-0.045936905
0.9120267,-36.791943,5.8290615,6.0,12,-0.0459346
0.27787519,-11.209724,-0.98102504,41.0,5,-0.045932297
0.85347825,-34.674316,6.742046,12.0,13,-0.04592999
0.42717293,-17.478788,-0.91629803,33.0,6,-0.04592769
0.86087096,-35.47806,8.193167,9.0,14,-0.045925383
0.9548043,-39.634464,-0.6920228,10.0,7,-0.04592308
0.7996572,-33.436592,8.961869,7.0,15,-0.045920774
1.9796159,-87.91033,1.5348694,63.0,8,-0.045897733
0.09642227,-4.3153825,-0.9965332,29.0,1,-0.04589543
0.83501,-37.665043,1.9744265,27.0,9,-0.045893125
0.1149189,-5.183681,-1.0078532,36.0,2,-0.045890823
0.8031529,-36.515656,3.195478,24.0,10,-0.04588852
0.13699113,-6.2782283,-0.9946104,32.0,3,-0.045886215
0.79073423,-36.53104,4.4864984,42.0,11,-0.045883913
0.1678912,-7.819462,-0.96033055,43.0,4,-0.045881607
1.1361268,-53.348755,8.4515295,14.0,12,-0.045879304
0.24005902,-11.272377,-0.9864287,48.0,5,-0.045877
0.36841825,-17.588,-0.92195034,40.0,6,-0.04587239
0.73884445,-35.56853,8.213412,16.0,14,-0.045870088
0.7023476,-34.389446,9.216546,8.0,15,-0.04586548
0.08128511,-4.311796,-0.99563336,28.0,1,-0.045840137
0.47445178,-25.402702,1.3315315,15.0,9,-0.04583783
0.096933626,-5.189939,-1.008998,37.0,2,-0.04583553
0.6750937,-36.48636,3.192689,16.0,10,-0.045833223
0.11587214,-6.322119,-1.0014936,38.0,3,-0.04583092
0.6634274,-36.545483,4.487961,36.0,11,-0.045828614
0.14055833,-7.818015,-0.96008676,37.0,4,-0.045826312
0.6547659,-36.77569,5.82562,12.0,12,-0.045824006
0.20202293,-11.346851,-0.9928782,41.0,5,-0.045821704
0.307717,-17.629118,-0.9240437,40.0,6,-0.045817096
0.61471945,-35.572838,8.213862,13.0,14,-0.04581479
0.43614152,-25.496387,-0.44510618,5.0,7,-0.045812488
0.63246477,-37.35473,10.010603,9.0,15,-0.04581018
0.06695235,-4.3588176,-1.006431,25.0,1,-0.04578484
0.576715,-37.54604,1.9679368,4.0,9,-0.045782536
0.0790849,-5.2079134,-1.0124326,36.0,2,-0.04578023
0.54934233,-36.596073,3.202102,24.0,10,-0.045777928
0.0949165,-6.3975415,-1.0133826,42.0,3,-0.045775622
0.114274666,-7.8879294,-0.9686176,39.0,4,-0.045771014
0.5315206,-36.688774,5.811541,25.0,12,-0.04576871
0.1616721,-11.2956915,-0.9883461,43.0,5,-0.045766406
0.516808,-36.554104,7.1061087,26.0,13,-0.045764104
0.2478807,-17.751907,-0.93042874,23.0,6,-0.045761798
0.5119523,-37.127766,8.572434,3.0,14,-0.045759495
0.35142058,-25.485697,-0.44489673,52.0,7,-0.04575719
0.4837088,-35.52926,9.520918,17.0,15,-0.045754887
0.31051025,-25.414234,0.4436402,41.0,8,-0.045731846
0.052028093,-4.3200436,-0.99743295,22.0,1,-0.045729544
0.44830054,-37.771496,1.97966,4.0,9,-0.045727238
0.06106659,-5.2218995,-1.0151039,36.0,2,-0.045724936
0.4259358,-36.974304,3.2350466,16.0,10,-0.04572263
0.07388352,-6.4136233,-1.0158856,40.0,3,-0.045720328
0.4230542,-37.289547,4.5788755,31.0,11,-0.04571802
0.088582054,-7.929949,-0.9737361,41.0,4,-0.04571572
0.40369192,-36.71213,5.8149824,37.0,12,-0.045713414
0.12262955,-11.332047,-0.9914837,43.0,5,-0.04571111
0.39686066,-36.67341,7.1290064,26.0,13,-0.045708805
0.189883,-17.834513,-0.9347203,28.0,6,-0.045706503
0.40139845,-38.329617,8.849574,15.0,14,-0.0457042
0.35560164,-35.12699,9.412731,17.0,15,-0.045699593
0.037197877,-4.349429,-1.0041815,23.0,1,-0.045674246
0.3163538,-37.760853,1.9790322,4.0,9,-0.045671944
0.043798953,-5.227963,-1.0162487,36.0,2,-0.045669638
0.41571575,-50.676716,4.433787,16.0,10,-0.045667335
0.051097922,-6.364459,-1.0080638,36.0,3,-0.04566503
0.29153377,-37.1181,4.55767,43.0,11,-0.045662727
0.06064239,-7.8964643,-0.9695926,33.0,4,-0.04566042
0.27626124,-36.810112,5.830313,25.0,12,-0.04565812
0.08373085,-11.422062,-0.9993277,46.0,5,-0.045655817
0.2686748,-36.651012,7.1244264,26.0,13,-0.04565351
0.12738642,-17.801113,-0.93294084,28.0,6,-0.04565121
0.2639037,-37.80074,8.727201,15.0,14,-0.045648903
0.44106266,-84.23602,1.4703653,63.0,8,-0.045621254
0.02207437,-4.361225,-1.006881,23.0,1,-0.04561895
0.12416267,-25.40683,1.3315315,2.0,9,-0.045616645
0.024701886,-5.241831,-1.0189201,37.0,2,-0.045614343
0.115329884,-25.41466,2.2235172,8.0,10,-0.04561204
0.027831653,-6.3784304,-1.0102539,36.0,3,-0.045609735
0.16166146,-37.04941,4.5491395,12.0,11,-0.045607433
0.03298653,-7.8747926,-0.9669115,35.0,4,-0.045605127
0.14883426,-37.07555,5.8722377,6.0,12,-0.045602825
0.044263676,-11.527881,-1.0085663,39.0,5,-0.04560052
0.13424899,-36.628193,7.1198473,26.0,13,-0.045598216
0.06225247,-17.833418,-0.9346157,28.0,6,-0.04559591
0.1249992,-37.694275,8.702456,30.0,14,-0.04559361
0.13291839,-84.613014,1.4769274,63.0,8,-0.04556596
0.0060867355,-4.3593273,-1.006431,22.0,1,-0.045563657
0.030991904,-25.367168,1.3294381,2.0,9,-0.04556135
0.0064305686,-5.263481,-1.0231179,28.0,2,-0.04555905
0.05317296,-50.770042,4.441805,16.0,10,-0.045556743
0.005587116,-6.402194,-1.0140083,34.0,3,-0.04555444
0.017915815,-25.661283,3.1508105,3.0,11,-0.045552135
0.0042026965,-8.027713,-0.9856793,41.0,4,-0.045549832
0.0040538614,-11.611645,-1.0158873,43.0,5,-0.045545224
0.0064123874,-36.7266,7.138928,13.0,13,-0.04554292
-7.836315e-07,-17.927399,-0.9395352,23.0,6,-0.045540616
-0.0063737542,-36.53693,8.435214,10.0,14,-0.04553831
-0.01905233,-36.386425,9.749714,9.0,15,-0.0455337
-0.009207341,-4.3963485,-1.0149791,23.0,1,-0.04550836
-0.011906333,-5.2477655,-1.020065,30.0,2,-0.04550375
-0.1247077,-51.036896,4.4651628,17.0,10,-0.04550145
-0.016652321,-6.360692,-1.0074381,24.0,3,-0.045499142
-0.11145649,-39.914093,4.900854,7.0,11,-0.04549684
-0.02388922,-8.051499,-0.9886042,39.0,4,-0.045494534
-0.11700352,-37.24357,5.8988314,19.0,12,-0.04549223
-0.037054542,-11.794888,-1.0319239,39.0,5,-0.045489926
-0.13152786,-39.66341,7.709829,15.0,13,-0.045487624
-0.06357438,-18.212894,-0.95450324,35.0,6,-0.045485318
-0.13377671,-36.49966,8.426667,17.0,14,-0.045483015
-0.024488226,-4.384597,-1.0122797,23.0,1,-0.045453064
-0.14538886,-25.24294,1.3229485,2.0,9,-0.04545076
-0.030439368,-5.284993,-1.0273157,30.0,2,-0.045448456
-0.15054044,-25.36865,2.2195082,39.0,10,-0.04544615
-0.039060492,-6.3941755,-1.0127568,29.0,3,-0.045443848
-0.23392485,-37.22967,4.5713196,6.0,11,-0.04544154
-0.052659895,-8.15459,-1.0012786,46.0,4,-0.04543924
-0.24577665,-37.05725,5.8694215,12.0,12,-0.045436934
-0.078834325,-11.886334,-1.0399423,39.0,5,-0.04543463
-0.34248874,-50.315083,9.780488,30.0,13,-0.045432325
-0.12787443,-18.316418,-0.9599462,40.0,6,-0.045430023
-0.26087773,-36.456097,8.416768,24.0,14,-0.045427717
-0.26910016,-35.856094,9.607881,8.0,15,-0.045423113
-0.039987843,-4.40592,-1.0172287,18.0,1,-0.045397766
-0.049323246,-5.3319707,-1.0364745,28.0,2,-0.045393158
-0.34250513,-36.339573,3.1794417,7.0,10,-0.045390856
-0.061550166,-6.4117775,-1.0155727,27.0,3,-0.04538855
-0.35778373,-36.60534,4.4947853,6.0,11,-0.045386247
-0.08270547,-8.313156,-1.0207777,46.0,4,-0.04538394
-0.37580562,-37.12333,5.8800592,12.0,12,-0.04538164
-0.11947674,-11.802311,-1.0326213,30.0,5,-0.045379333
-0.1925215,-18.383762,-0.9635051,27.0,6,-0.04537473
-0.529087,-49.69396,11.473403,6.0,14,-0.045372423
-0.8852897,-71.43764,1.2470442,6.0,8,-0.045344774
-0.055954963,-4.4525194,-1.0280263,20.0,1,-0.04534247
-0.06858484,-5.382807,-1.0463966,31.0,2,-0.045337863
-0.6822536,-52.82181,4.6216946,18.0,10,-0.045335557
-0.08501724,-6.4944825,-1.0287131,27.0,3,-0.045333255
-0.34005722,-25.635212,3.1478856,3.0,11,-0.045330953
-0.112015985,-8.334651,-1.0234588,45.0,4,-0.045328647
-0.49285778,-36.67153,5.808725,12.0,12,-0.045326345
-0.15915523,-11.690259,-1.0228598,30.0,5,-0.04532404
-0.54697895,-39.66771,7.711355,15.0,13,-0.045321736
-0.2584189,-18.506796,-0.96999466,40.0,6,-0.04531943
-0.69675833,-49.282616,11.378924,6.0,14,-0.04531713
-0.07099793,-4.4698467,-1.0320754,18.0,1,-0.045287177
-0.0877571,-5.4060903,-1.050976,32.0,2,-0.04528257
-0.83171886,-50.69152,4.43553,16.0,10,-0.045280263
-0.1069092,-6.5158916,-1.0321548,34.0,3,-0.04527796
-0.60792804,-36.661602,4.5020976,6.0,11,-0.045275655
-0.13918877,-8.306446,-1.0200466,48.0,4,-0.045273352
-0.6233714,-36.817722,5.8321905,6.0,12,-0.045271046
-0.20473194,-11.968526,-1.0472634,36.0,5,-0.045268744
-0.67643374,-39.543976,7.6876945,15.0,13,-0.04526644
-0.32027203,-18.533796,-0.9714601,40.0,6,-0.045264136
-0.8584149,-49.17871,11.35553,6.0,14,-0.04526183
-0.5597434,-31.75023,-0.55428845,6.0,7,-0.045259528
-0.6382357,-35.847553,9.606845,8.0,15,-0.045257222
-0.08644983,-4.461778,-1.0302758,18.0,1,-0.04523188
-0.10468569,-5.354735,-1.0410539,30.0,2,-0.04522727
-0.99957967,-50.676533,4.434484,16.0,10,-0.04522497
-0.13051884,-6.558928,-1.0390378,34.0,3,-0.045222662
-0.16834278,-8.313848,-1.0210215,48.0,4,-0.045218054
-0.73497957,-36.29801,5.750219,6.0,12,-0.045215752
-0.24995314,-12.238688,-1.0709697,36.0,5,-0.045213446
-0.38595888,-18.580488,-0.9739722,27.0,6,-0.045208838
-0.7702721,-36.772453,8.491452,10.0,14,-0.045206536
-0.71557426,-31.777105,0.554812,3.0,8,-0.045178887
-0.10164214,-4.4790006,-1.0343249,16.0,1,-0.045176584
-0.12306012,-5.3405976,-1.0383826,30.0,2,-0.045171976
-1.1746192,-50.59306,4.4275117,16.0,10,-0.04516967
-0.15107566,-6.5071125,-1.0309032,34.0,3,-0.045167368
-0.8366607,-35.767536,4.392903,5.0,11,-0.045165062
-0.1961925,-8.3251505,-1.0224838,48.0,4,-0.04516276
-0.85793346,-36.13724,5.7251897,18.0,12,-0.045160454
-0.2970063,-12.418997,-1.086832,50.0,5,-0.04515815
-0.8977975,-37.540432,7.2992077,27.0,13,-0.045155846
-0.4450233,-18.473282,-0.9684247,22.0,6,-0.045153543
-0.9232216,-38.047695,8.786588,3.0,14,-0.045151237
-0.9118907,-37.04749,9.929852,19.0,15,-0.04514663
-2.0838776,-80.1147,1.3988802,63.0,8,-0.04513081
-0.11839908,-4.5214763,-1.0442228,18.0,1,-0.045128506
-2.1223204,-80.511505,4.2208953,52.0,9,-0.045126203
-0.14190723,-5.3833365,-1.0467782,27.0,2,-0.045123897
-1.3421761,-50.58092,4.4268146,16.0,10,-0.045121595
-0.17347255,-6.4946985,-1.029026,38.0,3,-0.04511929
-1.3733627,-51.083775,6.2745657,11.0,11,-0.045116987
-0.22552022,-8.334337,-1.0237026,46.0,4,-0.04511468
-1.0248305,-37.630806,5.962344,6.0,12,-0.04511238
-0.33916435,-12.453794,-1.0899696,48.0,5,-0.045110073
-1.036149,-37.80397,7.3511076,13.0,13,-0.04510777
-0.5093397,-18.465628,-0.9681106,27.0,6,-0.045105465
-1.0857633,-39.11564,9.034035,4.0,14,-0.045103163
-1.0215576,-36.345028,9.742467,18.0,15,-0.045098554
-0.13418084,-4.521035,-1.0442228,20.0,1,-0.04507321
-0.94829047,-31.76424,1.665435,3.0,9,-0.045070905
-0.16099145,-5.392621,-1.0486863,28.0,2,-0.045068603
-1.6345061,-54.431454,4.7642813,38.0,10,-0.045066297
-0.19626088,-6.498002,-1.0296518,42.0,3,-0.045063995
-1.5499837,-51.023117,6.267741,11.0,11,-0.04506169
-0.25461134,-8.333499,-1.0237026,46.0,4,-0.045059387
-1.1339718,-36.90435,5.8478336,6.0,12,-0.04505708
-0.3834897,-12.480414,-1.0924101,44.0,5,-0.04505478
-0.5758414,-18.529613,-0.97156477,35.0,6,-0.04505017
-1.5554516,-49.77186,11.496348,12.0,14,-0.045047864
-1.1485378,-36.3451,9.743502,18.0,15,-0.045043256
-2.6233473,-79.49861,1.3884087,62.0,8,-0.04502022
-0.15002666,-4.522487,-1.0446726,21.0,1,-0.045017913
-0.18138413,-5.4391174,-1.0578451,27.0,2,-0.045013305
-0.21854374,-6.4854317,-1.0277746,34.0,3,-0.045008697
-1.2728539,-37.578083,4.616655,6.0,11,-0.045006394
-0.28450897,-8.356368,-1.0266274,45.0,4,-0.04500409
-1.2498862,-36.523087,5.7880754,37.0,12,-0.045001786
-0.42923182,-12.478926,-1.0924101,46.0,5,-0.04499948
-0.64458805,-18.645258,-0.97774047,22.0,6,-0.044994872
-1.7717383,-50.991146,11.779337,6.0,14,-0.04499257
-1.2361006,-35.221085,9.443272,8.0,15,-0.04498796
-0.16595459,-4.5258307,-1.0455725,15.0,1,-0.04496262
-0.20015638,-5.407026,-1.0517392,24.0,2,-0.04495801
-0.2439347,-6.528015,-1.0346577,29.0,3,-0.044953402
-1.8861344,-50.47545,6.2019315,11.0,11,-0.044951096
-0.3158373,-8.412849,-1.0336958,33.0,4,-0.044948794
-1.4822679,-39.299835,6.228908,6.0,12,-0.04494649
-0.47407162,-12.511198,-1.0953734,40.0,5,-0.044944186
-1.3875593,-36.45087,7.090463,13.0,13,-0.044941884
-0.73704004,-19.273443,-1.0108168,27.0,6,-0.044939578
-1.5308679,-39.84963,9.206797,4.0,14,-0.044937275
-1.370362,-35.50998,9.521953,8.0,15,-0.044932667
-0.18159899,-4.5018263,-1.0401736,15.0,1,-0.04490732
-0.21902935,-5.406294,-1.0517392,29.0,2,-0.044902712
-2.1897602,-53.817722,4.7123365,18.0,10,-0.04490041
-0.27059177,-6.621863,-1.0496755,29.0,3,-0.044898108
-0.34601602,-8.395769,-1.0317459,37.0,4,-0.0448935
-0.51370275,-12.411922,-1.086832,40.0,5,-0.04488889
-1.5170676,-36.50073,7.101148,13.0,13,-0.044886585
-0.8043152,-19.270754,-1.0108168,32.0,6,-0.044884283
-1.6138169,-38.504486,8.8972645,11.0,14,-0.044881977
-1.5328085,-36.41987,9.767314,18.0,15,-0.04487737
-3.4643807,-79.666565,1.3918992,62.0,8,-0.044854328
-0.19924687,-4.5635,-1.0545706,21.0,1,-0.044852026
-0.23902117,-5.430994,-1.0567002,29.0,2,-0.044847418
-2.375855,-53.769947,4.7088504,18.0,10,-0.044845115
-0.2938574,-6.6505303,-1.0543684,29.0,3,-0.04484281
-2.2358341,-50.401554,6.194619,11.0,11,-0.044840507
-0.3825974,-8.590905,-1.0558761,39.0,4,-0.0448382
-0.54907453,-12.232909,-1.0713184,36.0,5,-0.044833593
-1.7909251,-39.900276,7.763637,15.0,13,-0.04483129
-0.8726187,-19.365747,-1.0159457,22.0,6,-0.044828985
-3.733065,-79.45424,1.3884087,62.0,8,-0.044799034
-0.21655178,-4.5919747,-1.0613191,22.0,1,-0.04479673
-4.2867336,-90.56418,4.7515817,58.0,9,-0.044794425
-0.25823662,-5.4556656,-1.0616612,32.0,2,-0.044792123
-2.4692464,-51.97462,4.5523186,17.0,10,-0.044789817
-0.31801054,-6.6691957,-1.0574971,27.0,3,-0.044787515
-2.3832877,-49.798595,6.1214976,11.0,11,-0.04478521
-0.4146795,-8.633139,-1.0612383,35.0,4,-0.044782907
-0.60063064,-12.414004,-1.087355,36.0,5,-0.0447783
-1.9262083,-39.81142,7.7476087,15.0,13,-0.044775993
-0.94815624,-19.526165,-1.0245287,32.0,6,-0.04477369
-1.8512045,-37.98653,8.78029,3.0,14,-0.044771384
-1.7885449,-36.439148,9.775596,9.0,15,-0.044766776
-4.010391,-79.44072,1.3884087,62.0,8,-0.04474374
-0.23188941,-4.577567,-1.0581697,17.0,1,-0.044741433
-4.5951324,-90.39707,4.743627,58.0,9,-0.04473913
-0.27663082,-5.423311,-1.0555553,26.0,2,-0.044736825
-0.3433642,-6.6857405,-1.060313,36.0,3,-0.044732217
-2.5704358,-50.04968,6.153427,22.0,11,-0.044729915
-0.44869357,-8.706972,-1.0705004,43.0,4,-0.04472761
-0.63941807,-12.324285,-1.0796853,36.0,5,-0.044723
-2.0753736,-39.866837,7.759821,15.0,13,-0.0447207
-1.0270098,-19.662176,-1.0318558,35.0,6,-0.044718392
-2.0280542,-38.69759,8.946303,11.0,14,-0.04471609
-1.9159302,-36.436546,9.776631,18.0,15,-0.04471148
-4.895659,-90.395744,1.5801759,63.0,8,-0.04468844
-0.25109723,-4.6214414,-1.0685174,16.0,1,-0.04468614
-4.926905,-90.67963,4.7593274,58.0,9,-0.044683833
-0.2951321,-5.414471,-1.054029,27.0,2,-0.04468153
-0.36843115,-6.71606,-1.0653188,29.0,3,-0.044676922
-0.48279187,-8.74491,-1.0753752,33.0,4,-0.044672314
-2.1975381,-39.804466,6.3140087,7.0,12,-0.044670008
-0.6765935,-12.216542,-1.0704468,28.0,5,-0.044667706
-2.227597,-40.094574,7.8056145,15.0,13,-0.044665404
-1.1011928,-19.758183,-1.0370895,37.0,6,-0.044663098
-2.8041673,-50.1563,11.597577,19.0,14,-0.044660795
-2.0433276,-36.433495,9.777667,18.0,15,-0.044656187
-5.215367,-90.726395,1.5862492,63.0,8,-0.044633146
-0.26496246,-4.595292,-1.0626688,12.0,1,-0.04463084
-5.237643,-90.56218,4.754094,58.0,9,-0.04462854
-0.3147133,-5.4251676,-1.0563186,26.0,2,-0.044626232
-0.39368314,-6.766074,-1.0734534,31.0,3,-0.044621624
-0.5261727,-8.988993,-1.1055988,48.0,4,-0.04461702
-3.4078577,-58.045265,9.209298,17.0,12,-0.044614714
-0.75893706,-12.888359,-1.1295384,18.0,5,-0.04461241
-2.3640022,-40.145763,7.8170633,16.0,13,-0.044610105
-1.1741265,-19.88003,-1.0436838,27.0,6,-0.044607803
-2.1870081,-36.92042,8.5386915,7.0,14,-0.044605497
-2.3143525,-38.840534,10.425749,10.0,15,-0.04460089
-0.2805262,-4.586559,-1.0608691,12.0,1,-0.044575546
-5.596521,-91.24107,4.790729,58.0,9,-0.04457324
-0.33198047,-5.412337,-1.054029,21.0,2,-0.044570938
-0.4190025,-6.7922616,-1.0778337,33.0,3,-0.04456633
-3.0906093,-49.958603,6.1458716,11.0,11,-0.044564027
-0.557669,-8.989082,-1.1058425,45.0,4,-0.04456172
-0.81206477,-13.052808,-1.1441805,26.0,5,-0.044557113
-2.412682,-38.671597,7.531613,14.0,13,-0.04455481
-1.251244,-19.9994,-1.0501734,26.0,6,-0.044552505
-2.3565059,-37.560223,8.688509,10.0,14,-0.044550203
-2.4457872,-38.766666,10.408149,10.0,15,-0.044545595
-0.29766595,-4.6030536,-1.0649183,11.0,1,-0.04452025
-0.35290375,-5.4424915,-1.0601349,29.0,2,-0.044515643
-0.4457929,-6.838066,-1.0853424,33.0,3,-0.044511035
-3.5257576,-53.93697,6.6367617,13.0,11,-0.04450873
-0.5859287,-8.93954,-1.0999928,41.0,4,-0.044506427
-0.81622934,-12.420057,1.9713873,45.0,12,-0.04450412
-0.78536904,-11.950475,-1.0477864,2.0,5,-0.04450182
-2.5445552,-38.61593,7.5224547,14.0,13,-0.044499513
-1.335929,-20.220108,-1.0620013,23.0,6,-0.04449721
-2.5507197,-38.50456,8.908961,27.0,14,-0.044494905
-2.5094604,-37.6823,10.1193075,9.0,15,-0.044490296
-0.31479228,-4.61754,-1.0685174,11.0,1,-0.044464953
-0.3771206,-5.517615,-1.0750179,26.0,2,-0.044460345
-0.47128442,-6.8601174,-1.0890969,35.0,3,-0.044455737
-0.6262911,-9.070127,-1.1163234,43.0,4,-0.04445113
-0.8602609,-12.426986,1.9729517,16.0,12,-0.044448826
-0.90330684,-13.04881,-1.1443549,28.0,5,-0.04444652
-1.4211947,-20.42652,-1.0730966,36.0,6,-0.044441912
-2.7393506,-39.27303,9.0889225,16.0,14,-0.04443961
-2.5480318,-36.34745,9.763172,9.0,15,-0.044435002
-0.3295154,-4.5969753,-1.0640185,10.0,1,-0.04440966
-0.40256977,-5.602426,-1.0918092,24.0,2,-0.04440505
-0.49551252,-6.862371,-1.0897226,33.0,3,-0.044400442
-0.8989915,-12.419991,1.5289729,12.0,11,-0.044398136
-0.65133995,-8.97681,-1.1051114,45.0,4,-0.044395834
-3.578856,-49.20505,7.8139024,12.0,12,-0.04439353
-1.5025358,-20.558878,-1.0803189,30.0,6,-0.044386618
-2.7246387,-37.191425,8.609327,3.0,14,-0.044384316
-2.6785855,-36.38843,9.776631,9.0,15,-0.044379707
-0.34818947,-4.630776,-1.0721167,10.0,1,-0.04435436
-0.9160318,-12.182843,0.64027816,31.0,9,-0.04435206
-0.42581153,-5.649929,-1.1013496,34.0,2,-0.044349752
-0.5169276,-6.827114,-1.0844039,28.0,3,-0.044345144
-0.937682,-12.355416,1.521417,30.0,11,-0.044342842
-0.6853813,-9.01011,-1.1094985,43.0,4,-0.044340536
-3.8265126,-50.30382,7.9903607,13.0,12,-0.044338234
-0.94333816,-12.372692,-1.0856119,16.0,5,-0.04433593
-1.5819153,-20.65308,-1.0855525,27.0,6,-0.044331323
-0.97316056,-12.676281,2.9351614,29.0,14,-0.044329017
-2.9166229,-37.904865,10.186601,9.0,15,-0.04432441
-0.36308628,-4.623768,-1.070767,8.0,1,-0.044299066
-0.9518144,-12.093955,0.6357773,47.0,9,-0.04429676
-0.44414163,-5.630794,-1.097915,27.0,2,-0.044294458
-4.5273495,-57.269886,5.0260973,21.0,10,-0.044292156
-0.541744,-6.8529315,-1.088784,28.0,3,-0.04428985
-0.9880564,-12.470973,1.5360414,42.0,11,-0.044287547
-0.7174563,-9.035492,-1.1129109,46.0,4,-0.04428524
-1.0074537,-12.659674,2.0114346,33.0,12,-0.04428294
-0.98715514,-12.377269,-1.0863092,10.0,5,-0.044280633
-1.6395743,-20.512339,-1.0784348,22.0,6,-0.044276025
-3.0544915,-37.963776,10.205235,9.0,15,-0.044269115
-0.38145435,-4.6496634,-1.0770656,8.0,1,-0.04424377
-0.9738954,-11.845722,0.62290263,56.0,9,-0.044241466
-0.4632944,-5.63516,-1.0990598,30.0,2,-0.044239163
-4.713641,-57.210876,5.0222626,21.0,10,-0.044236857
-0.57070094,-6.9120274,-1.098483,23.0,3,-0.044234555
-1.0245438,-12.38238,1.5255606,50.0,11,-0.04423225
-0.7530918,-9.08239,-1.1190044,45.0,4,-0.044229947
-1.0536027,-12.679704,2.0151892,35.0,12,-0.04422764
-1.0293608,-12.361835,-1.0852633,44.0,5,-0.04422534
-1.7095029,-20.486586,-1.077388,19.0,6,-0.04422073
-1.0566623,-12.636351,2.9275131,1.0,14,-0.044218425
-0.3895433,-4.5531626,-1.0550205,5.0,1,-0.044188473
-1.0137037,-11.824341,0.6219606,58.0,9,-0.04418617
-0.48058388,-5.594303,-1.0914276,29.0,2,-0.044183865
-0.601124,-6.9689317,-1.107869,19.0,3,-0.044179257
-1.0643486,-12.339173,1.5206858,28.0,11,-0.044176955
-0.79162747,-9.158814,-1.1287539,41.0,4,-0.04417465
-1.0925717,-12.614941,2.00549,15.0,12,-0.044172347
-1.0661318,-12.284722,-1.0788138,48.0,5,-0.04417004
-1.8189079,-20.874147,-1.0981131,27.0,6,-0.044165432
-1.069915,-12.253829,2.839782,30.0,14,-0.04416313
-0.41506326,-4.6506968,-1.0779655,6.0,1,-0.04413318
-0.49923518,-5.582814,-1.0895194,26.0,2,-0.04412857
-4.990619,-55.69926,4.892575,20.0,10,-0.044126265
-0.6402835,-7.132058,-1.13415,32.0,3,-0.044123963
-4.7788386,-53.126923,6.549503,12.0,11,-0.044121657
-0.8310724,-9.221095,-1.1367973,46.0,4,-0.044119354
-1.1303937,-12.542191,1.9945397,1.0,12,-0.04411705
-1.1011231,-12.193617,-1.0711441,52.0,5,-0.044114746
-1.1262155,-12.447232,2.4293802,2.0,13,-0.04411244
-1.8966304,-20.921377,-1.1009393,25.0,6,-0.044110138
-1.1080993,-12.199559,2.8280847,36.0,14,-0.044107832
-5.098924,-56.136322,-0.9838969,25.0,7,-0.04410553
-1.1118125,-12.216772,3.287002,21.0,15,-0.044103228
-0.43066308,-4.651235,-1.0784154,5.0,1,-0.04407788
-1.1163363,-12.033746,0.6333698,40.0,9,-0.04407558
-0.5198094,-5.592767,-1.0918092,24.0,2,-0.044073272
-5.1868706,-55.701336,4.8943176,40.0,10,-0.04407097
-0.6694256,-7.188901,-1.1435361,35.0,3,-0.044068664
-1.1327624,-12.141696,1.4972868,14.0,11,-0.044066362
-0.8705131,-9.313161,-1.1484969,39.0,4,-0.044064056
-1.1807982,-12.608973,2.0058029,20.0,12,-0.044061754
-1.1373525,-12.122253,-1.0652174,44.0,5,-0.044059448
-1.171154,-12.482521,2.4370127,40.0,13,-0.044057146
-1.9486127,-20.730043,-1.0912048,22.0,6,-0.044054843
-1.1527514,-12.240441,2.8384326,37.0,14,-0.044052538
-5.2903385,-56.0704,-0.98305917,51.0,7,-0.044050235
-3.4909902,-36.930786,9.939688,19.0,15,-0.04404793
-0.44391337,-4.618666,-1.071217,3.0,1,-0.044022586
-0.55039597,-5.716082,-1.1162328,32.0,2,-0.044017978
-5.3573866,-55.53707,4.8814187,20.0,10,-0.044015672
-0.6947049,-7.188487,-1.1438489,30.0,3,-0.04401337
-1.1743733,-12.1297655,1.4963119,50.0,11,-0.044011068
-0.91076577,-9.407039,-1.16044,30.0,4,-0.04400876
-5.006559,-51.617336,8.213749,14.0,12,-0.04400646
-1.1748463,-12.090652,-1.062777,48.0,5,-0.044004153
-1.2158592,-12.490082,2.4393022,48.0,13,-0.04400185
-2.0271688,-20.786726,-1.0945543,27.0,6,-0.043999545
-1.1931471,-12.2346115,2.8379824,45.0,14,-0.043997243
-5.4816856,-56.108276,-0.9840365,25.0,7,-0.043994937
-5.5463047,-55.8628,0.97988284,24.0,8,-0.043969594
-0.46617055,-4.6869793,-1.0874133,5.0,1,-0.04396729
-5.5409884,-55.710297,2.9340587,33.0,9,-0.043964986
-0.5775229,-5.7962756,-1.1322607,26.0,2,-0.043962684
-5.5435123,-55.538826,4.883162,20.0,10,-0.043960378
-0.7234527,-7.2352834,-1.1516707,34.0,3,-0.043958075
-1.2155801,-12.13568,1.4975306,56.0,11,-0.04395577
-0.9259302,-9.243976,-1.1406971,46.0,4,-0.043953467
-5.1749353,-51.57293,8.209369,14.0,12,-0.04395116
-1.2109491,-12.047043,-1.0592909,52.0,5,-0.04394886
-1.2560915,-12.474261,2.4370127,20.0,13,-0.043946553
-2.0930805,-20.75008,-1.0929842,24.0,6,-0.04394425
-5.7331567,-55.860012,0.9801621,24.0,8,-0.0439143
-0.48071373,-4.6757154,-1.085164,3.0,1,-0.043911994
-1.266022,-12.314103,0.64875656,3.0,9,-0.04390969
-0.6059929,-5.884163,-1.1498151,38.0,2,-0.043907385
-0.747442,-7.2328444,-1.1516707,34.0,3,-0.043902777
-0.96782035,-9.349453,-1.1541028,37.0,4,-0.04389817
-1.3039353,-12.574987,2.0023613,22.0,12,-0.043895867
-1.2517157,-12.050888,-1.0599881,44.0,5,-0.04389356
-1.316954,-12.657488,2.473648,21.0,13,-0.04389126
-2.0935571,-20.08748,-1.0584425,5.0,6,-0.043888953
-5.2816863,-50.677273,11.763141,6.0,14,-0.04388665
-5.9621973,-56.25431,0.9874223,12.0,8,-0.043859
-0.5036227,-4.7438583,-1.1013604,3.0,1,-0.0438567
-1.3070612,-12.311823,0.6488612,1.0,9,-0.043854393
-0.6207276,-5.8372197,-1.141038,34.0,2,-0.04385209
-1.3252531,-12.441825,1.0946761,33.0,10,-0.043849785
-0.7710031,-7.226397,-1.151045,42.0,3,-0.043847483
-1.0087335,-9.438963,-1.1655585,43.0,4,-0.043842874
-1.341634,-12.533277,1.9964169,24.0,12,-0.04384057
-1.2908204,-12.038746,-1.0592909,54.0,5,-0.043838266
-1.3813533,-12.861918,2.514481,15.0,13,-0.04383596
-2.1825898,-20.28894,-1.0694331,2.0,6,-0.043833658
-6.112643,-55.63468,0.9769508,11.0,8,-0.04381498
-0.5209814,-4.734141,-1.0995607,2.0,1,-0.043812674
-1.338377,-12.161788,0.6412202,26.0,9,-0.04381037
-0.6450721,-5.852356,-1.1444724,35.0,2,-0.043808065
-1.3826379,-12.523781,1.1023458,16.0,10,-0.043805763
-0.8052581,-7.282286,-1.160431,39.0,3,-0.043803457
-1.3753735,-12.418239,1.5340914,34.0,11,-0.043801155
-1.0617175,-9.570975,-1.1823765,48.0,4,-0.04379885
-1.3964984,-12.588896,2.0061157,22.0,12,-0.043796547
-1.3379164,-12.041622,-1.0599881,42.0,5,-0.04379424
-1.4326835,-12.874081,2.5179157,3.0,13,-0.04379194
-2.3755255,-21.31259,-1.1238624,2.0,6,-0.043789633
-5.5492396,-49.707573,11.547187,26.0,14,-0.04378733
-6.2512164,-55.995564,-0.983478,25.0,7,-0.043785024
-6.304752,-55.681664,0.97813755,12.0,8,-0.04375968
-0.5393128,-4.7556233,-1.1049596,3.0,1,-0.04375738
-1.3781154,-12.133229,0.63996416,23.0,9,-0.043755073
-0.6683817,-5.8754277,-1.1494334,36.0,2,-0.04375277
-1.4281503,-12.534715,1.1037403,63.0,10,-0.043750465
-0.82940286,-7.279576,-1.160431,36.0,3,-0.043748163
-1.4194711,-12.43925,1.5372599,46.0,11,-0.043745857
-1.0945777,-9.577263,-1.1835952,46.0,4,-0.043743555
-1.437064,-12.554505,2.001423,35.0,12,-0.04374125
-1.3838009,-12.070529,-1.0629514,34.0,5,-0.043738946
-2.7309704,-23.784874,-1.2547023,3.0,6,-0.043734338
-5.741654,-49.928963,11.602975,6.0,14,-0.043732032
-6.5051036,-55.71096,0.9790451,12.0,8,-0.043704387
-0.5579464,-4.7711315,-1.1090087,2.0,1,-0.04370208
-1.4141889,-12.074784,0.637138,18.0,9,-0.04369978
-0.68260926,-5.8283305,-1.1406562,32.0,2,-0.043697473
-1.4669226,-12.506164,1.1016486,68.0,10,-0.04369517
-0.8571123,-7.296255,-1.1635597,36.0,3,-0.043692864
-1.4754106,-12.540681,1.550422,2.0,11,-0.043690562
-1.1345062,-9.628584,-1.1904199,43.0,4,-0.043688256
-1.4539856,-12.30306,-1.0838689,98.0,5,-0.043683648
-2.8534179,-24.10841,-1.2722872,3.0,6,-0.04367904
-6.0090356,-50.6943,11.785636,6.0,14,-0.043676738
-6.685202,-55.56879,0.9769508,11.0,8,-0.04364909
-0.5704016,-4.734329,-1.1009104,2.0,1,-0.043646786
-6.876825,-56.993843,3.0085852,23.0,9,-0.04364448
-0.7079698,-5.8589234,-1.1471437,33.0,2,-0.04364218
-1.4895341,-12.308842,1.0847404,52.0,10,-0.043639872
-0.8893149,-7.338168,-1.1707556,31.0,3,-0.04363757
-1.5208473,-12.549248,1.5521282,18.0,11,-0.043635264
-1.1702609,-9.642301,-1.1926135,45.0,4,-0.04363296
-1.5202731,-12.489756,-1.100777,36.0,5,-0.043628354
-2.9891968,-24.486368,-1.2928029,3.0,6,-0.043623745
-6.051967,-49.503597,11.513895,19.0,14,-0.043621443
-6.8843975,-55.508194,0.97632253,11.0,8,-0.043593794
-0.58174473,-4.6838603,-1.0896629,5.0,1,-0.04359149
-1.5407388,-12.38742,0.65419954,6.0,9,-0.043589186
-0.73302126,-5.893433,-1.1543945,36.0,2,-0.04358688
-1.5514518,-12.455803,1.0981623,33.0,10,-0.043584578
-0.9220152,-7.3918643,-1.1798289,28.0,3,-0.043582276
-1.5678169,-12.551469,1.553103,52.0,11,-0.04357997
-1.2139714,-9.704918,-1.2009006,41.0,4,-0.043577667
-1.5274298,-12.193524,1.9463578,1.0,12,-0.04357536
-1.5896178,-12.689973,-1.1189054,46.0,5,-0.04357306
-1.5610985,-12.427143,-0.65639764,78.0,6,-0.04356845
-6.216948,-49.420296,11.499498,6.0,14,-0.043566145
-7.079629,-55.495724,0.976532,11.0,8,-0.043538496
-0.604759,-4.7339926,-1.1018102,5.0,1,-0.043536194
-7.2855015,-56.951096,3.0090039,11.0,9,-0.04353389
-0.7548345,-5.9005756,-1.1563026,35.0,2,-0.043531585
-1.5903633,-12.414741,1.0950247,33.0,10,-0.043529283
-0.959374,-7.47873,-1.1942208,38.0,3,-0.043526977
-1.612632,-12.553795,1.554078,66.0,11,-0.043524675
-1.262277,-9.812847,-1.2147937,31.0,4,-0.04352237
-1.5611497,-12.119547,1.9354074,41.0,12,-0.043520067
-1.8904814,-14.67622,-1.2946115,14.0,5,-0.04351776
-6.3974137,-49.46014,11.513895,19.0,14,-0.04351085
-1.6107663,-12.43621,-0.21888809,40.0,7,-0.043508545
-0.61950386,-4.718328,-1.098661,7.0,1,-0.0434809
-1.6318665,-12.412004,0.6560836,15.0,9,-0.043478593
-0.7710756,-5.8648143,-1.1498151,35.0,2,-0.04347629
-1.6331708,-12.405163,1.0946761,68.0,10,-0.043473985
-0.98779666,-7.4929614,-1.1970366,33.0,3,-0.043471683
-1.6580024,-12.559897,1.5555404,16.0,11,-0.043469377
-1.3030262,-9.85758,-1.2208872,37.0,4,-0.043467075
-1.5837462,-11.965193,1.9116293,41.0,12,-0.04346477
-1.6470591,-12.443522,-1.0981623,40.0,5,-0.043462466
-6.8213506,-51.466217,10.091507,32.0,13,-0.04346016
-1.6662121,-12.554534,-0.66372466,1.0,6,-0.04345786
-1.6549585,-12.436458,-0.2189928,8.0,7,-0.04345325
-1.6760933,-12.445733,0.21920222,51.0,8,-0.043427907
-0.6422205,-4.762487,-1.1094586,8.0,1,-0.0434256
-1.65888,-12.285496,0.6496986,40.0,9,-0.0434233
-0.7841872,-5.80761,-1.1391298,30.0,2,-0.043420993
-1.0221626,-7.550151,-1.2067356,35.0,3,-0.043416385
-1.6901016,-12.467481,1.5448159,62.0,11,-0.043414082
-1.3235425,-9.750686,-1.2082127,45.0,4,-0.043411776
-1.6348145,-12.028101,1.9225799,46.0,12,-0.043409474
-1.9682081,-14.481034,-1.2785747,36.0,5,-0.04340717
-7.01208,-51.523792,10.107535,32.0,13,-0.043404866
-1.6984282,-12.463547,-0.6592238,10.0,6,-0.04340256
-6.8774486,-50.402866,11.744245,6.0,14,-0.043400258
-1.7203473,-12.44575,0.21930695,39.0,8,-0.04337261
-0.666856,-4.818126,-1.1229557,12.0,1,-0.043370306
-1.7094692,-12.3511505,0.6534668,31.0,9,-0.043368
-0.81739086,-5.898182,-1.1574475,29.0,2,-0.0433657
-1.7224739,-12.413194,1.0964192,52.0,10,-0.043363392
-1.0515009,-7.5680594,-1.2101772,35.0,3,-0.04336109
-1.7166511,-12.339603,1.5297042,16.0,11,-0.043358784
-1.3816725,-9.919023,-1.2296617,45.0,4,-0.043356482
-2.0446136,-14.659565,-1.29496,36.0,5,-0.043351874
-6.8508363,-49.056858,9.628222,29.0,13,-0.04334957
-7.1025233,-50.7298,11.826127,7.0,14,-0.043344963
-1.7537134,-12.525905,-0.22077294,28.0,7,-0.043342657
-0.68775433,-4.8506184,-1.1310539,17.0,1,-0.04331501
-1.7607123,-12.402452,0.6565023,30.0,9,-0.043312706
-0.8363169,-5.8836303,-1.1551577,31.0,2,-0.0433104
-1.76495,-12.401188,1.0958962,44.0,10,-0.043308098
-1.0779836,-7.574309,-1.2117414,38.0,3,-0.043305792
-7.6141405,-53.4329,6.627012,13.0,11,-0.04330349
-1.4114726,-9.89277,-1.2269807,46.0,4,-0.043301187
-2.0844889,-14.573446,-1.2879876,32.0,5,-0.04329658
-6.995688,-48.90949,9.603799,29.0,13,-0.043294273
-3.897447,-27.214607,-1.440809,4.0,6,-0.04329197
-7.054405,-49.19748,11.474303,19.0,14,-0.043289665
-0.7013178,-4.8250465,-1.125655,19.0,1,-0.043259714
-1.8081511,-12.440028,0.6588051,52.0,9,-0.043257408
-0.8572369,-5.8905377,-1.1570657,31.0,2,-0.043255106
-1.8149701,-12.456386,1.1013,22.0,10,-0.043252803
-1.099568,-7.5372705,-1.2064227,33.0,3,-0.043250497
-7.496495,-51.32389,6.368649,12.0,11,-0.043248195
-1.4494433,-9.911353,-1.2299055,43.0,4,-0.04324589
-7.6748075,-52.480648,8.400532,14.0,12,-0.043243587
-2.1460812,-14.657136,-1.2960058,42.0,5,-0.04324128
-7.12736,-48.618645,9.5515175,29.0,13,-0.04323898
-4.122356,-28.086124,-1.487702,4.0,6,-0.043236673
-7.2391343,-49.261246,11.494999,6.0,14,-0.04323437
-0.71244067,-4.789926,-1.1180067,15.0,1,-0.04320442
-1.8565669,-12.467224,0.6605845,35.0,9,-0.043202113
-0.88647825,-5.9457636,-1.1685143,21.0,2,-0.04319981
-1.8360834,-12.300212,1.0880523,22.0,10,-0.043197505
-1.1353474,-7.6058707,-1.2179989,37.0,3,-0.043195203
-1.8347266,-12.276439,1.5240982,44.0,11,-0.043192897
-1.4858268,-9.930051,-1.2328304,43.0,4,-0.043190595
-2.198711,-14.659408,-1.2968775,36.0,5,-0.043185987
-7.2850537,-48.57145,9.546938,29.0,13,-0.04318368
-7.400412,-49.22348,11.49185,12.0,14,-0.043179072
-0.74382764,-4.883736,-1.1405019,17.0,1,-0.04314912
-1.8982668,-12.448821,0.65995646,42.0,9,-0.04314682
-0.91714054,-6.0146017,-1.1826342,33.0,2,-0.043144513
-1.8618286,-12.195577,1.0793368,2.0,10,-0.04314221
-1.1675608,-7.6389623,-1.2239434,37.0,3,-0.043139905
-1.8721621,-12.234639,1.5197108,42.0,11,-0.043137603
-1.5183761,-9.911068,-1.2311242,37.0,4,-0.043135297
-2.2494261,-14.66582,-1.2980976,36.0,5,-0.04313069
-8.0509615,-52.307934,12.218441,7.0,14,-0.043123778
-1.9508058,-12.529106,0.22133142,1.0,8,-0.04309613
-0.755468,-4.8464513,-1.1324036,20.0,1,-0.043093827
-0.9320749,-5.9725685,-1.1750019,26.0,2,-0.04308922
-1.2018505,-7.683632,-1.2317652,46.0,3,-0.04308461
-1.9099442,-12.1966505,1.5158111,46.0,11,-0.043082304
-1.5446619,-9.8527565,-1.2245432,46.0,4,-0.043080002
-2.307401,-14.701182,-1.3019325,30.0,5,-0.043075394
-8.218843,-52.305225,10.291857,33.0,13,-0.043073088
-5.2071457,-33.10095,-1.7560809,13.0,6,-0.043070786
-7.931236,-50.36027,11.769889,20.0,14,-0.043068483
-2.0014477,-12.565667,0.22209933,40.0,8,-0.043040834
-0.7720734,-4.84186,-1.1319537,22.0,1,-0.04303853
-2.0018282,-12.553952,0.66623676,7.0,9,-0.043036226
-0.95632267,-5.9906044,-1.1791997,35.0,2,-0.04303392
-1.2392743,-7.7457094,-1.2424027,40.0,3,-0.043029312
-1.9710306,-12.305556,1.5301917,4.0,11,-0.04302701
-1.5781026,-9.841425,-1.2238121,45.0,4,-0.043024704
-2.3640707,-14.726481,-1.3048958,38.0,5,-0.0430201
-5.34106,-33.19694,-1.7621518,13.0,6,-0.04301549
-8.105745,-50.324585,11.768089,13.0,14,-0.043013185
-0.7956435,-4.885435,-1.1427513,22.0,1,-0.042983234
-2.0453165,-12.544916,0.6661321,16.0,9,-0.042980928
-0.9965189,-6.1054244,-1.2024784,35.0,2,-0.042978626
-2.0138535,-12.324852,1.0925844,33.0,10,-0.042976324
-1.2655904,-7.7454557,-1.2430284,43.0,3,-0.042974018
-2.0211203,-12.355764,1.5372599,2.0,11,-0.042971715
-1.6148989,-9.861606,-1.2269807,43.0,4,-0.04296941
-8.456422,-51.583862,8.279139,14.0,12,-0.042967107
-2.4112687,-14.69258,-1.3026297,32.0,5,-0.0429648
-8.128282,-49.52804,9.756064,30.0,13,-0.0429625
-5.5191107,-33.592922,-1.7841328,13.0,6,-0.042960193
-11.269835,-68.520805,16.031813,16.0,14,-0.04295789
-0.8142918,-4.892239,-1.1450008,24.0,1,-0.04292794
-2.0881097,-12.531792,0.66581815,2.0,9,-0.042925633
-1.01676,-6.102086,-1.2024784,31.0,2,-0.04292333
-2.0763493,-12.447811,1.1040889,2.0,10,-0.042921025
-1.2926197,-7.7409906,-1.2430284,40.0,3,-0.042918723
-9.405417,-56.2649,7.004319,14.0,11,-0.042916417
-1.6611086,-9.92639,-1.2357552,26.0,4,-0.042914115
-9.554841,-57.036346,9.159552,17.0,12,-0.04291181
-2.4708397,-14.749348,-1.308382,36.0,5,-0.042909507
-8.208247,-48.945614,9.646922,29.0,13,-0.0429072
-5.7996964,-34.546482,-1.835841,7.0,6,-0.0429049
-12.353212,-73.5046,17.207855,19.0,14,-0.042902593
-0.82417744,-4.8471007,-1.135103,24.0,1,-0.04287264
-1.0453011,-6.141079,-1.210874,28.0,2,-0.042868033
-1.3332514,-7.8162694,-1.2558562,36.0,3,-0.042863425
-2.10265,-12.313959,1.5338477,2.0,11,-0.042861123
-1.7141432,-10.028152,-1.2491609,37.0,4,-0.042858817
-2.5253341,-14.758307,-1.3099508,32.0,5,-0.04285421
-8.408888,-49.090816,9.681268,29.0,13,-0.042851906
-0.7513212,-4.336149,-1.1791797,1.0,0,-0.042821955
-10.296364,-59.362495,1.0516471,14.0,8,-0.04281965
-0.8504259,-4.8979554,-1.1477003,24.0,1,-0.042817347
-10.726565,-61.71479,3.2828255,18.0,9,-0.04281504
-1.0660597,-6.1335244,-1.2101108,22.0,2,-0.04281274
-1.3642546,-7.832974,-1.2592976,39.0,3,-0.04280813
-1.7433355,-9.988862,-1.2450173,52.0,4,-0.042803522
-9.145041,-52.344788,8.416175,14.0,12,-0.042801216
-2.5831852,-14.770542,-1.3118682,38.0,5,-0.042798914
-8.527431,-48.75948,9.621735,29.0,13,-0.042796608
-6.4326763,-36.74398,-1.9549574,8.0,6,-0.042794306
-14.278461,-81.392494,-1.4424065,63.0,7,-0.042789698
-0.74767506,-4.223035,-1.1491566,1.0,0,-0.042766657
-10.523737,-59.440403,1.0536716,14.0,8,-0.042764354
-0.86819804,-4.8987947,-1.1486001,27.0,1,-0.04276205
-1.098144,-6.1836996,-1.220796,31.0,2,-0.04275744
-1.3964158,-7.84737,-1.2624264,45.0,3,-0.042752832
-1.8244926,-10.242641,-1.2774346,39.0,4,-0.042748224
-2.6294754,-14.732013,-1.3092535,34.0,5,-0.042743616
-8.772383,-49.098965,9.695005,30.0,13,-0.042741314
-6.629194,-37.06619,-1.9733797,8.0,6,-0.04273901
-11.738723,-65.56935,15.378554,14.0,14,-0.042736705
-0.76515925,-4.235608,-1.1532978,1.0,0,-0.042711362
-0.88927054,-4.9128375,-1.1526492,28.0,1,-0.042706754
-1.1288233,-6.2300553,-1.2307181,30.0,2,-0.042702146
-1.430858,-7.8813195,-1.2686837,48.0,3,-0.042697538
-10.935308,-60.17314,7.509346,19.0,11,-0.042695235
-1.8154789,-9.980038,-1.2455047,26.0,4,-0.04269293
-9.60146,-52.781082,8.496896,15.0,12,-0.042690627
-2.6876676,-14.759989,-1.3125654,38.0,5,-0.04268832
-6.817327,-37.36505,-1.9905459,17.0,6,-0.042683713
-12.39397,-67.86292,15.926535,16.0,14,-0.04268141
-0.778539,-4.2253118,-1.1512272,1.0,0,-0.042656064
-10.938446,-59.365486,1.0536716,14.0,8,-0.04265376
-0.91298,-4.9501066,-1.1620972,39.0,1,-0.04265146
-1.1530609,-6.2395916,-1.2333894,35.0,2,-0.04264685
-13.990099,-75.63115,6.7291203,57.0,10,-0.042644545
-1.4591409,-7.8881865,-1.270561,42.0,3,-0.042642243
-1.9324914,-10.426793,-1.3020523,33.0,4,-0.042637635
-2.724621,-14.67216,-1.305593,24.0,5,-0.042633027
-6.942658,-37.350094,-1.9909648,17.0,6,-0.04262842
-12.434295,-66.829025,15.693484,15.0,14,-0.042626113
-0.7896956,-4.207517,-1.147086,1.0,0,-0.04260077
-11.113113,-59.153988,1.0505999,14.0,8,-0.042598467
-0.94285935,-5.0139203,-1.1778437,33.0,1,-0.04259616
-12.076226,-64.218735,3.4245515,23.0,9,-0.04259386
-1.1704768,-6.218369,-1.2299548,33.0,2,-0.042591553
-1.4852027,-7.87528,-1.2693094,42.0,3,-0.042586945
-10.59051,-56.1024,7.010169,14.0,11,-0.042584643
-1.9865673,-10.513611,-1.3137517,33.0,4,-0.042582337
-9.834343,-52.04679,8.389269,14.0,12,-0.042580035
-2.8084364,-14.849025,-1.3221526,32.0,5,-0.04257773
-7.0912137,-37.421787,-1.9960936,17.0,6,-0.04257312
-0.7934877,-4.1478114,-1.1315569,4.0,0,-0.042545475
-11.358054,-59.372147,1.0551376,15.0,8,-0.04254317
-0.93859035,-4.9016705,-1.1521993,27.0,1,-0.042540867
-11.873972,-61.95179,3.3058534,19.0,9,-0.04253856
-1.1966155,-6.2373824,-1.2345343,30.0,2,-0.04253626
-12.027028,-62.63209,5.5797105,30.0,10,-0.042533953
-1.5332878,-7.9847674,-1.2877687,57.0,3,-0.04253165
-2.0259216,-10.530358,-1.3166765,39.0,4,-0.042527042
-2.8806136,-14.944776,-1.3315654,28.0,5,-0.042522434
-7.2655926,-37.65889,-2.010015,26.0,6,-0.042517826
-0.8101798,-4.1563935,-1.1346627,5.0,0,-0.042488575
-11.587084,-59.388992,1.0561848,15.0,8,-0.042486273
-0.97671896,-5.0014777,-1.176494,27.0,1,-0.042483967
-1.2168738,-6.2254605,-1.2330078,28.0,2,-0.04247936
-1.5576081,-7.953893,-1.2837014,48.0,3,-0.04247475
-2.0752034,-10.577404,-1.3235012,39.0,4,-0.042470142
-2.9346848,-14.944405,-1.332437,24.0,5,-0.042465534
-10.4796715,-53.31684,10.562042,34.0,13,-0.04246323
-7.420149,-37.71627,-2.0145159,35.0,6,-0.042460926
-13.823196,-70.197975,16.517706,17.0,14,-0.042458624
-0.843118,-4.2463884,-1.160027,11.0,0,-0.04243328
-11.760021,-59.175587,1.0531131,14.0,8,-0.042430975
-1.0070977,-5.063022,-1.1917907,31.0,1,-0.042428672
-1.2443467,-6.2500563,-1.238732,33.0,2,-0.042424064
-1.5702939,-7.8728557,-1.2714995,36.0,3,-0.042419456
-2.1191146,-10.605136,-1.3278885,43.0,4,-0.042414848
-3.0216074,-15.107948,-1.3479507,34.0,5,-0.04241024
-7.590601,-37.884018,-2.0248783,26.0,6,-0.04240563
-14.081938,-70.21809,16.533901,18.0,14,-0.042403325
-0.85181075,-4.213123,-1.1517448,11.0,0,-0.042377982
-12.0640745,-59.61633,1.0616997,15.0,8,-0.04237568
-1.0224433,-5.048016,-1.1890913,35.0,1,-0.042373374
-12.374131,-61.03888,3.2639844,17.0,9,-0.042371072
-1.2700576,-6.264916,-1.2425482,20.0,2,-0.042368766
-1.6150638,-7.9525046,-1.2852658,36.0,3,-0.042364158
-2.177492,-10.702717,-1.3410504,45.0,4,-0.04235955
-11.011769,-54.07631,8.740621,16.0,12,-0.042357247
-3.0794923,-15.122689,-1.3502167,38.0,5,-0.04235494
-7.770701,-38.092125,-2.0374389,17.0,6,-0.042350333
-13.644731,-66.82714,15.746573,15.0,14,-0.04234803
-0.8809211,-4.280135,-1.1708974,12.0,0,-0.042322688
-12.372161,-60.059586,1.0703561,17.0,8,-0.04232038
-1.063276,-5.157024,-1.2156355,36.0,1,-0.04231808
-12.5112295,-60.627583,3.244306,16.0,9,-0.042315774
-1.2843791,-6.2239127,-1.2352976,33.0,2,-0.04231347
-1.6468134,-7.9661627,-1.2883943,36.0,3,-0.042308863
-2.2172527,-10.706715,-1.3425128,37.0,4,-0.042304255
-3.1500564,-15.197689,-1.3578864,24.0,5,-0.042299647
-8.042893,-38.73552,-2.0733414,18.0,6,-0.04229504
-14.512332,-69.83187,16.466417,17.0,14,-0.042292736
-0.89664793,-4.2808156,-1.1719327,12.0,0,-0.04226739
-10.804331,-51.53765,0.9191485,10.0,8,-0.042265087
-1.0880734,-5.1857033,-1.2232838,33.0,1,-0.04226278
-1.3182018,-6.277032,-1.2467461,24.0,2,-0.042258173
-1.6441107,-7.8153863,-1.2649293,33.0,3,-0.04225357
-10.797888,-51.284,6.4349456,12.0,11,-0.042251263
-2.2456086,-10.656175,-1.3371505,43.0,4,-0.04224896
-11.021155,-52.29912,8.465296,15.0,12,-0.042246655
-3.3038244,-15.6642275,-1.4005928,20.0,5,-0.042244352
-14.751965,-69.76172,16.461918,17.0,14,-0.04223744
-0.9244704,-4.338121,-1.1884971,16.0,0,-0.042212095
-1.1064836,-5.187784,-1.2246336,31.0,1,-0.042207487
-12.939457,-60.615242,3.2482836,16.0,9,-0.042205185
-1.3442066,-6.291591,-1.2505622,28.0,2,-0.04220288
-1.6766276,-7.840798,-1.2699351,27.0,3,-0.04219827
-10.982839,-51.317795,6.4437203,12.0,11,-0.04219597
-2.28218,-10.654493,-1.3378818,35.0,4,-0.042193662
-11.19536,-52.221703,8.459038,15.0,12,-0.04219136
-3.3605745,-15.662337,-1.4014642,38.0,5,-0.042189054
-11.424854,-53.246826,10.585702,34.0,13,-0.042186752
-14.966845,-69.63621,16.443922,17.0,14,-0.042182144
-0.93476224,-4.3161507,-1.1833206,16.0,0,-0.0421568
-13.034856,-60.136154,1.074056,17.0,8,-0.042154495
-1.132435,-5.2200747,-1.2331817,33.0,1,-0.042152192
-1.3721447,-6.319714,-1.2570497,22.0,2,-0.042147584
-1.7014673,-7.823316,-1.2680578,24.0,3,-0.042142976
-11.128557,-51.125908,6.424465,24.0,11,-0.04214067
-2.3163996,-10.632884,-1.3361756,33.0,4,-0.042138368
-3.4120686,-15.649162,-1.40129,22.0,5,-0.04213376
-11.647479,-53.375416,10.619285,34.0,13,-0.042131454
-10.591303,-48.494774,-2.6014113,14.0,6,-0.04212915
-15.135758,-69.24466,16.36384,17.0,14,-0.042126846
-0.9518998,-4.3222947,-1.1859089,21.0,0,-0.042101502
-1.1502299,-5.2141876,-1.2327318,40.0,1,-0.042096894
-1.3996979,-6.3398085,-1.2620108,28.0,2,-0.042092286
-1.7709942,-8.008279,-1.299032,36.0,3,-0.042087678
-11.30995,-51.10032,6.4261713,12.0,11,-0.042085376
-2.377543,-10.733268,-1.3498249,33.0,4,-0.04208307
-3.5373962,-15.956162,-1.429877,8.0,5,-0.04207846
-10.757921,-48.445816,-2.6007833,28.0,6,-0.042073853
-15.385834,-69.22946,16.372837,17.0,14,-0.04207155
-0.96613705,-4.3151755,-1.1848736,23.0,0,-0.042046208
-1.1722617,-5.2272534,-1.2367809,33.0,1,-0.0420416
-1.4338573,-6.388521,-1.2726961,30.0,2,-0.04203699
-1.8002365,-8.007829,-1.2999705,33.0,3,-0.042032383
-11.779335,-52.354225,6.5889883,13.0,11,-0.042030077
-2.4075804,-10.691981,-1.3456814,43.0,4,-0.042027775
-11.846694,-52.56795,8.534753,15.0,12,-0.04202547
-3.6224182,-16.073944,-1.441556,6.0,5,-0.042023167
-0.97519344,-4.285405,-1.1776267,20.0,0,-0.04199091
-1.1788079,-5.17183,-1.2246336,30.0,1,-0.0419863
-1.4491637,-6.3528514,-1.2665902,30.0,2,-0.041981693
-1.8312583,-8.014977,-1.3021606,36.0,3,-0.041977085
-11.845191,-51.801914,6.5246415,12.0,11,-0.041974783
-2.4608302,-10.753175,-1.354456,39.0,4,-0.04197248
-12.030121,-52.526276,8.534753,15.0,12,-0.041970175
-3.7065272,-16.183552,-1.4525375,6.0,5,-0.041967873
-1.0066847,-4.353498,-1.197297,23.0,0,-0.041935615
-13.9994545,-60.493797,1.0838293,19.0,8,-0.04193331
-1.2025706,-5.1923637,-1.2304822,30.0,1,-0.041931007
-1.4748762,-6.3630548,-1.2696431,30.0,2,-0.0419264
-12.864668,-55.45797,4.9807763,20.0,10,-0.041924097
-1.8717328,-8.062413,-1.310921,36.0,3,-0.04192179
-11.93968,-51.389004,6.4778438,25.0,11,-0.04191949
-2.4817164,-10.67298,-1.3454378,33.0,4,-0.041917183
-12.323539,-52.95726,8.611718,15.0,12,-0.04191488
-3.7923489,-16.296652,-1.4638679,6.0,5,-0.041912574
-1.0112725,-4.3048215,-1.1848736,27.0,0,-0.04188032
-11.594599,-49.31767,0.88431346,9.0,8,-0.041878015
-1.240772,-5.273497,-1.2507279,34.0,1,-0.041875713
-13.634759,-57.90474,3.1176534,12.0,9,-0.041873407
-1.5137286,-6.428574,-1.2837629,38.0,2,-0.041871104
-13.277525,-56.343575,5.0644455,21.0,10,-0.0418688
-1.8962363,-8.040449,-1.308418,36.0,3,-0.041866496
-12.106228,-51.29291,6.4710193,12.0,11,-0.04186419
-2.535385,-10.733801,-1.3542123,43.0,4,-0.041861888
-12.571935,-53.18306,8.6555195,15.0,12,-0.041859582
-3.8725858,-16.3822,-1.4727577,6.0,5,-0.04185728
-1.0464689,-4.385825,-1.2081673,26.0,0,-0.041825023
-1.2655137,-5.295669,-1.2570266,31.0,1,-0.041820414
-1.5302223,-6.398429,-1.2788019,30.0,2,-0.041815806
-13.338704,-55.73109,5.013547,21.0,10,-0.041813504
-1.9380966,-8.0914135,-1.3178041,36.0,3,-0.041811198
-12.3296175,-51.43566,6.4944177,12.0,11,-0.041808896
-2.6029363,-10.850357,-1.3700553,41.0,4,-0.04180659
-12.773189,-53.204155,8.666158,15.0,12,-0.041804288
-3.964168,-16.511946,-1.4856569,6.0,5,-0.04180198
-1.0567675,-4.361493,-1.2024734,31.0,0,-0.041769728
-12.739239,-52.537323,0.9436167,22.0,8,-0.041767422
-1.2835318,-5.289325,-1.2565767,30.0,1,-0.04176512
-1.55857,-6.4178495,-1.2837629,40.0,2,-0.04176051
-1.972864,-8.11147,-1.3221843,37.0,3,-0.041755904
-12.494065,-51.33059,6.486618,12.0,11,-0.041753598
-2.6262314,-10.781415,-1.3624994,33.0,4,-0.041751295
-4.0552826,-16.635445,-1.4980329,6.0,5,-0.041746687
-14.631311,-59.929123,-3.2330017,31.0,6,-0.04174208
-1.0706016,-4.352149,-1.2009205,30.0,0,-0.04171443
-1.3103775,-5.3188715,-1.2646748,30.0,1,-0.04170982
-14.908766,-60.46977,3.2639844,17.0,9,-0.04170752
-1.5945929,-6.467649,-1.2948298,32.0,2,-0.041705213
-13.616727,-55.18783,4.9731064,20.0,10,-0.04170291
-2.0205805,-8.183164,-1.3350118,43.0,3,-0.041700605
-12.8560295,-52.026684,6.580214,13.0,11,-0.041698303
-2.6281097,-10.627653,-1.344219,26.0,4,-0.041695997
-13.148096,-53.12903,8.66866,15.0,12,-0.041693695
-4.150658,-16.772043,-1.5116292,6.0,5,-0.041691393
-14.845213,-59.89707,-3.2340484,31.0,6,-0.041686784
-1.0914025,-4.370877,-1.207132,32.0,0,-0.041659135
-1.292534,-5.1686945,-1.2300324,30.0,1,-0.041654527
-1.6123928,-6.4429984,-1.2910137,34.0,2,-0.04164992
-2.0246425,-8.078339,-1.3190556,36.0,3,-0.04164531
-2.6879048,-10.708908,-1.3556747,33.0,4,-0.041640703
-13.307492,-52.97935,8.651766,15.0,12,-0.0416384
-4.255777,-16.942959,-1.5283631,4.0,5,-0.041636094
-12.364648,-49.15311,-2.6562593,15.0,6,-0.041631486
-15.091039,-59.902927,-1.0782795,34.0,7,-0.041626878
-1.1118734,-4.3876405,-1.2128261,31.0,0,-0.041603837
-1.3479577,-5.3114824,-1.2651247,31.0,1,-0.041599233
-14.544926,-57.270798,3.0967188,12.0,9,-0.041596927
-1.6377729,-6.448748,-1.2933035,36.0,2,-0.041594625
-2.0630531,-8.111424,-1.3256258,34.0,3,-0.041590016
-2.765448,-10.857201,-1.3756613,43.0,4,-0.04158541
-4.352292,-17.07473,-1.5416108,4.0,5,-0.0415808
-12.524294,-49.063206,-2.653747,15.0,6,-0.04157619
-15.32085,-59.931255,-1.0797455,34.0,7,-0.041571584
-1.1329554,-4.4061837,-1.2190377,30.0,0,-0.041548543
-15.457329,-60.071728,1.0827124,18.0,8,-0.04154624
-1.3465656,-5.229371,-1.2466787,27.0,1,-0.041543934
-1.6622331,-6.4505963,-1.2948298,30.0,2,-0.041539326
-2.0953047,-8.119476,-1.3281288,34.0,3,-0.041534718
-13.3356085,-51.63934,6.5485277,12.0,11,-0.041532416
-2.8028321,-10.845559,-1.3754175,39.0,4,-0.04153011
-14.459482,-55.910664,9.146724,17.0,12,-0.041527808
-4.461755,-17.252323,-1.5590419,4.0,5,-0.0415255
-12.676448,-48.945717,-2.6497695,15.0,6,-0.041520894
-1.1590561,-4.4433274,-1.2304258,27.0,0,-0.04149325
-15.602271,-59.76975,1.0782446,18.0,8,-0.041490942
-1.3810657,-5.286859,-1.2615255,28.0,1,-0.04148864
-1.6887115,-6.459951,-1.2978829,32.0,2,-0.04148403
