x,y,z,intensity,ring,time
0.33306822,-4.8856196,-0.77560216,36.0,3,-0.050601028
3.689061,-54.113083,6.6596727,13.0,11,-0.050598722
0.38569787,-5.6722064,-0.69806767,45.0,4,-0.05059642
0.49109262,-7.259615,-0.63658553,40.0,5,-0.05059181
3.455031,-51.20697,9.976258,31.0,13,-0.050589506
0.6707939,-9.967745,-0.523569,55.0,6,-0.050587203
3.7364507,-55.66717,12.880697,8.0,14,-0.050584897
0.9993166,-14.888227,-0.26045972,37.0,7,-0.050582595
0.21138194,-3.225068,-0.8660086,1.0,0,-0.050559554
2.1836662,-33.405605,0.58434147,16.0,8,-0.050557252
0.22971645,-3.5236373,-0.8152226,33.0,1,-0.050554946
0.26558137,-4.0847607,-0.79567355,32.0,2,-0.050550338
3.8511124,-59.391933,5.2070327,22.0,10,-0.050548036
0.3144829,-4.8630967,-0.7718477,37.0,3,-0.05054573
3.4954276,-54.19953,6.6686907,26.0,11,-0.050543427
0.36745366,-5.7132015,-0.70294243,46.0,4,-0.05054112
0.46957466,-7.320934,-0.6418149,39.0,5,-0.050536513
3.2622259,-50.999283,9.9335165,31.0,13,-0.05053421
0.63968396,-10.027827,-0.5266044,51.0,6,-0.050531905
3.2798188,-51.55689,11.926906,7.0,14,-0.050529603
0.9541105,-15.039471,-0.26304266,41.0,7,-0.0505273
3.2614927,-51.552715,13.841125,25.0,15,-0.050524995
0.20108032,-3.2412114,-0.8701497,1.0,0,-0.05050426
2.094579,-33.85811,0.59212524,32.0,8,-0.050501954
0.21981448,-3.5633187,-0.82422066,32.0,1,-0.05049965
0.24975465,-4.060189,-0.7907125,31.0,2,-0.050495043
3.6401184,-59.345352,5.201803,22.0,10,-0.050492737
0.29822847,-4.8759947,-0.7737249,36.0,3,-0.050490435
3.302957,-54.157906,6.6621103,13.0,11,-0.05048813
0.34919617,-5.7421904,-0.7063548,46.0,4,-0.050485827
0.44377553,-7.3185506,-0.64146626,40.0,5,-0.05048122
3.0858428,-51.037792,9.938859,31.0,13,-0.050478917
0.60924345,-10.105759,-0.53058195,57.0,6,-0.05047661
3.1799338,-52.9005,12.235088,15.0,14,-0.05047431
0.90746903,-15.14052,-0.264753,33.0,7,-0.050472002
3.1103241,-52.045895,13.970535,26.0,15,-0.0504697
0.19202283,-3.2804646,-0.88050246,1.0,0,-0.05044896
1.9877958,-34.060852,0.5955459,28.0,8,-0.05044666
0.20760155,-3.567955,-0.82512045,27.0,1,-0.050444353
4.0724974,-70.203476,3.6853938,66.0,9,-0.05044205
0.23785426,-4.100235,-0.79834485,31.0,2,-0.050439745
3.4311001,-59.325874,5.199014,22.0,10,-0.050437443
0.2790462,-4.8395367,-0.7677805,34.0,3,-0.05043514
3.1280155,-54.41485,6.6923337,13.0,11,-0.050432835
0.32767266,-5.71761,-0.7031862,45.0,4,-0.050430533
0.41822702,-7.3200555,-0.64146626,39.0,5,-0.050425924
0.5750961,-10.127765,-0.5316287,57.0,6,-0.050421316
0.86554193,-15.337257,-0.26813877,37.0,7,-0.050416708
2.9208229,-51.917557,13.933266,25.0,15,-0.050414402
0.1784475,-3.242536,-0.8701497,1.0,0,-0.050393667
1.8778701,-34.23131,0.5984081,33.0,8,-0.05039136
0.19578454,-3.5803328,-0.8278199,31.0,1,-0.05038906
3.0436473,-55.838367,2.9307091,11.0,9,-0.050386757
0.22300594,-4.091239,-0.7964368,33.0,2,-0.05038445
3.2077775,-59.039074,5.1728673,22.0,10,-0.05038215
0.26514238,-4.895711,-0.77654076,34.0,3,-0.050379843
0.30952623,-5.752417,-0.70732975,45.0,4,-0.050375234
3.2039447,-59.73843,9.475237,20.0,12,-0.050372932
0.391818,-7.305555,-0.64007175,40.0,5,-0.050370626
3.1285489,-58.52351,11.392061,38.0,13,-0.050368324
0.5402723,-10.139682,-0.53215206,55.0,6,-0.050366018
2.8860884,-54.343933,12.563966,8.0,14,-0.050363716
0.80893385,-15.282275,-0.26712653,33.0,7,-0.05036141
2.7127142,-51.418137,13.796609,24.0,15,-0.050359108
1.7731416,-34.525234,0.6034344,24.0,8,-0.050336067
0.18408202,-3.596564,-0.83141905,33.0,1,-0.050333764
2.8413105,-55.513054,2.9131243,11.0,9,-0.05033146
0.20912342,-4.099835,-0.79796326,33.0,2,-0.050329156
0.24825127,-4.900552,-0.77716655,33.0,3,-0.050324548
0.28984416,-5.7613926,-0.7083047,43.0,4,-0.05031994
3.0004795,-59.642193,9.458342,19.0,12,-0.050317634
0.36631513,-7.3068776,-0.64007175,40.0,5,-0.05031533
0.5126194,-10.2971,-0.54031646,51.0,6,-0.050310723
2.6973455,-54.373142,12.568465,8.0,14,-0.050308418
0.7607298,-15.334805,-0.26799917,41.0,7,-0.050306115
2.5406625,-51.395973,13.788326,24.0,15,-0.05030381
1.6688105,-34.742645,0.60713434,34.0,8,-0.050280772
0.17103678,-3.5737965,-0.8260203,27.0,1,-0.050278466
2.6115627,-54.768524,2.8735583,32.0,9,-0.050276164
0.19555676,-4.116228,-0.8010163,32.0,2,-0.050273858
0.23087814,-4.8776703,-0.7734121,31.0,3,-0.05026925
2.8366516,-60.15093,7.3938136,17.0,11,-0.050266948
0.2720405,-5.7900825,-0.711717,45.0,4,-0.05026464
2.8256981,-60.366608,9.571601,21.0,12,-0.05026234
0.34257036,-7.345927,-0.6433837,40.0,5,-0.050260033
0.4790271,-10.310714,-0.5409445,55.0,6,-0.050255425
2.2977185,-49.643627,11.473403,12.0,14,-0.050253123
0.70664364,-15.325382,-0.26778972,45.0,7,-0.05025082
2.35929,-51.362076,13.776938,24.0,15,-0.050248515
1.5521513,-34.852142,0.60894936,29.0,8,-0.050225474
0.1595971,-3.5977337,-0.83141905,31.0,1,-0.05022317
2.417811,-54.719444,2.8705227,42.0,9,-0.050220866
0.18398555,-4.1639266,-0.81017506,36.0,2,-0.050218564
2.406419,-54.678013,4.7883363,19.0,10,-0.050216258
0.21540809,-4.9139695,-0.7790437,30.0,3,-0.050213955
2.6503847,-60.70386,7.460598,18.0,11,-0.05021165
0.25070703,-5.7652144,-0.7085484,45.0,4,-0.050209347
2.6867676,-62.03386,9.83441,25.0,12,-0.05020704
0.3171836,-7.3530493,-0.64390665,40.0,5,-0.05020474
0.44989088,-10.471956,-0.54931825,48.0,6,-0.05020013
2.1262534,-49.69418,11.483302,25.0,14,-0.05019783
0.6520366,-15.301783,-0.26733595,33.0,7,-0.050195523
2.1830995,-51.44334,13.796609,24.0,15,-0.05019322
1.4414715,-35.125076,0.6136266,34.0,8,-0.05017018
0.14878848,-3.6411057,-0.84131694,33.0,1,-0.050167874
2.2286556,-54.773445,2.8729303,31.0,9,-0.05016557
0.1686432,-4.1626115,-0.8097935,40.0,2,-0.050163265
2.2088945,-54.75813,4.7946115,19.0,10,-0.050160963
0.19771306,-4.9226213,-0.78029525,30.0,3,-0.050158657
2.382234,-59.312397,7.2885184,15.0,11,-0.050156355
0.23303989,-5.8275437,-0.7161043,37.0,4,-0.050154053
0.29246238,-7.3780007,-0.64599836,39.0,5,-0.050149444
2.1400313,-54.226067,10.548685,34.0,13,-0.05014714
0.41605392,-10.589287,-0.5553892,52.0,6,-0.050144836
1.9399107,-49.59454,11.458557,12.0,14,-0.05014253
0.59994954,-15.337934,-0.26792935,22.0,7,-0.050140228
1.3191429,-35.30198,0.6166284,34.0,8,-0.05011488
0.13703552,-3.684469,-0.85121477,31.0,1,-0.05011258
2.3486335,-63.147617,3.311715,38.0,9,-0.050110273
0.15498333,-4.186717,-0.81437284,38.0,2,-0.05010797
2.0142837,-54.671932,4.786419,38.0,10,-0.05010567
0.17987712,-4.9055147,-0.7774794,31.0,3,-0.050103363
1.9878209,-54.47041,6.692578,27.0,11,-0.05010106
0.21513754,-5.92358,-0.72780377,39.0,4,-0.050098754
0.27016076,-7.4745493,-0.6543653,39.0,5,-0.050094146
1.9603301,-54.50004,10.600585,34.0,13,-0.050091844
0.38101783,-10.644566,-0.5582154,46.0,6,-0.050089538
1.7665027,-49.59322,11.456758,18.0,14,-0.050087236
0.55025,-15.447849,-0.26981422,22.0,7,-0.05008493
1.2073805,-35.462048,0.619351,30.0,8,-0.050059587
0.12389291,-3.6576366,-0.84491616,29.0,1,-0.050057285
2.1269727,-63.119507,3.309831,38.0,9,-0.05005498
0.1409599,-4.204892,-0.81780744,30.0,2,-0.050052676
1.8224398,-54.64876,4.7838044,38.0,10,-0.05005037
0.16433348,-4.927801,-0.7809209,28.0,3,-0.05004807
1.8075063,-54.486618,6.693796,13.0,11,-0.050045762
0.1938561,-5.874661,-0.7217103,45.0,4,-0.05004346
1.8003492,-54.848404,8.691813,15.0,12,-0.050041154
0.24582326,-7.5292125,-0.6590717,39.0,5,-0.05003885
1.7865077,-54.71816,10.6418,34.0,13,-0.050036546
0.34694842,-10.683699,-0.56020415,50.0,6,-0.050034244
1.6065576,-49.739037,11.48915,19.0,14,-0.050031938
0.501845,-15.621561,-0.27281603,18.0,7,-0.050029635
1.6856118,-52.757065,14.143427,27.0,15,-0.05002733
1.0867621,-35.569984,0.62116605,30.0,8,-0.050004292
0.112367555,-3.6989512,-0.8543641,34.0,1,-0.050001986
0.12660064,-4.1916003,-0.8151361,30.0,2,-0.04999738
1.6496975,-54.93729,4.8085566,19.0,10,-0.049995076
0.15084413,-5.0527377,-0.80063164,31.0,3,-0.04999277
1.6178954,-54.51244,6.6962337,27.0,11,-0.049990468
0.175281,-5.940781,-0.72975373,43.0,4,-0.04998816
1.6165891,-54.790886,8.681801,31.0,12,-0.04998586
0.22424173,-7.645496,-0.66918176,42.0,5,-0.049983554
1.6053342,-55.061596,10.7074375,35.0,13,-0.04998125
0.31011707,-10.700816,-0.5610415,58.0,6,-0.049978945
1.4270952,-49.54176,11.44236,12.0,14,-0.049976643
0.45239943,-15.705093,-0.2742471,15.0,7,-0.049974337
0.9731599,-35.73331,0.62395847,35.0,8,-0.049948994
0.099994764,-3.6954074,-0.8534643,32.0,1,-0.04994669
0.112807065,-4.2234173,-0.821242,31.0,2,-0.049942084
1.4646839,-55.197655,4.8308682,19.0,10,-0.049939778
0.13366905,-5.0374136,-0.7981287,33.0,3,-0.049937475
0.15531966,-5.931408,-0.728535,48.0,4,-0.049932867
0.19940583,-7.717934,-0.675457,37.0,5,-0.04992826
1.39485,-53.987186,10.497548,34.0,13,-0.049925953
0.28006083,-10.9134245,-0.5721367,48.0,6,-0.04992365
1.3195015,-51.770954,11.956148,14.0,14,-0.04992135
0.41159374,-16.260315,-0.28391576,22.0,7,-0.049919043
0.85064673,-35.830444,0.62559897,39.0,8,-0.0498937
0.08805882,-3.7366462,-0.86291224,38.0,1,-0.049891394
0.85916895,-36.729534,1.92544,4.0,9,-0.04988909
0.09939827,-4.2492833,-0.82620305,30.0,2,-0.049886785
1.1978358,-51.592968,4.515016,17.0,10,-0.049884483
0.11681232,-5.0694466,-0.8031346,31.0,3,-0.049882177
1.1521401,-50.382366,6.1877947,11.0,11,-0.049879875
0.13488428,-5.9438214,-0.7299974,45.0,4,-0.04987757
1.2219409,-54.26367,8.596701,15.0,12,-0.049875267
0.173264,-7.754437,-0.6785946,34.0,5,-0.049872965
1.2072603,-54.030983,10.50518,34.0,13,-0.04987066
0.24174255,-10.904353,-0.5716134,42.0,6,-0.049868356
1.0939182,-49.73541,11.485102,6.0,14,-0.04986605
0.3529103,-16.173685,-0.28237993,22.0,7,-0.04986375
1.0683571,-49.356907,13.228242,20.0,15,-0.049861442
0.7128212,-35.203426,0.614604,34.0,8,-0.0498384
0.07528908,-3.7505693,-0.86606157,30.0,1,-0.0498361
0.083978,-4.2574706,-0.82772946,30.0,2,-0.04983149
0.71641946,-36.645,3.2066343,24.0,10,-0.04982919
0.09761874,-5.038241,-0.7981287,31.0,3,-0.049826883
0.9811808,-50.64013,6.218993,11.0,11,-0.04982458
0.11813689,-6.1526523,-0.75559,45.0,4,-0.049822275
0.9978762,-52.446644,8.308236,14.0,12,-0.049819972
0.14679645,-7.786867,-0.68138355,39.0,5,-0.049817666
1.0092243,-54.03504,10.50518,34.0,13,-0.049815364
0.20181124,-10.907164,-0.57171804,58.0,6,-0.04981306
0.9112635,-49.719604,11.480602,25.0,14,-0.049810756
0.2975889,-16.2368,-0.283462,15.0,7,-0.04980845
0.96787256,-53.316116,14.288364,28.0,15,-0.049806148
0.5972828,-36.019566,0.6288102,39.0,8,-0.049783107
0.06125425,-3.7332838,-0.86201245,38.0,1,-0.049780805
0.59748495,-36.41512,1.9086925,45.0,9,-0.0497785
0.06927535,-4.267553,-0.8296375,30.0,2,-0.049776196
0.588787,-36.665203,3.2082028,16.0,10,-0.04977389
0.08050244,-5.0681777,-0.8028218,30.0,3,-0.04977159
0.5662716,-36.046814,4.426539,5.0,11,-0.049769282
0.09598625,-6.1788473,-0.7587586,45.0,4,-0.04976698
0.8127644,-52.319443,8.287586,14.0,12,-0.049764674
0.119370244,-7.7713947,-0.6799891,35.0,5,-0.049762372
0.1640064,-10.925774,-0.5726601,44.0,6,-0.049757764
0.7225544,-48.701454,11.244853,17.0,14,-0.049755458
0.24734697,-16.671627,-0.29103634,22.0,7,-0.049753156
0.47955692,-36.15131,0.631079,31.0,8,-0.049727812
0.0490013,-3.7432094,-0.864262,41.0,1,-0.049725506
0.4707333,-36.444942,1.9101579,40.0,9,-0.049723204
0.054953564,-4.3129196,-0.8384147,30.0,2,-0.0497209
0.46042147,-36.63715,3.2055883,32.0,10,-0.049718596
0.06404264,-5.09607,-0.8072019,27.0,3,-0.04971629
0.4479123,-36.143776,4.438238,6.0,11,-0.049713988
0.07559343,-6.1870713,-0.75973356,45.0,4,-0.049711682
0.43485495,-36.107265,5.7192445,18.0,12,-0.04970938
0.0924776,-7.7916865,-0.68173224,37.0,5,-0.049707074
0.42997336,-36.227345,7.0423784,13.0,13,-0.04970477
0.12821895,-10.964203,-0.57464886,35.0,6,-0.049702466
0.5611219,-48.70943,11.246203,17.0,14,-0.049700163
0.193415,-17.048307,-0.29759842,23.0,7,-0.049697857
0.5451818,-48.80519,13.078127,19.0,15,-0.049695555
0.35631695,-36.45471,0.6363497,27.0,8,-0.049672514
0.036384057,-3.7901251,-0.8750596,30.0,1,-0.049670212
0.35129222,-36.59409,1.9179035,4.0,9,-0.049667906
0.04128004,-4.379826,-0.8513898,32.0,2,-0.049665604
0.3358281,-36.30377,3.1763036,23.0,10,-0.049663298
0.04645132,-5.1179905,-0.8106435,27.0,3,-0.049660996
0.3224323,-36.22253,4.447744,12.0,11,-0.04965869
0.054117147,-6.2011924,-0.7614397,52.0,4,-0.049656387
0.31561506,-36.165794,5.7283177,6.0,12,-0.04965408
0.06703145,-7.8377733,-0.68574136,39.0,5,-0.04965178
0.41660815,-49.72749,9.666385,29.0,13,-0.049649473
0.090338856,-11.012517,-0.577161,35.0,6,-0.04964717
0.41168833,-51.277496,11.838724,7.0,14,-0.049644865
0.13715196,-17.082848,-0.29819182,27.0,7,-0.049642563
0.38406715,-48.899456,13.102974,19.0,15,-0.04964026
0.27296486,-42.26868,0.73781794,12.0,8,-0.04961722
0.023705006,-3.7726867,-0.8710105,27.0,1,-0.049614914
0.025607284,-4.3151574,-0.83879644,28.0,2,-0.049610306
0.2088761,-36.264874,3.1728177,47.0,10,-0.049608003
0.02938798,-5.102314,-0.8081406,27.0,3,-0.049605697
0.20227765,-36.217445,4.447013,36.0,11,-0.049603395
0.03344605,-6.181487,-0.7590023,46.0,4,-0.04960109
0.18872869,-36.044205,5.7089205,6.0,12,-0.049598787
0.039893743,-7.8817916,-0.6895762,40.0,5,-0.04959648
0.18168625,-35.895683,6.9775033,25.0,13,-0.04959418
0.05371175,-10.990787,-0.5760096,43.0,6,-0.049591877
0.161368,-34.24288,7.9056797,25.0,14,-0.04958957
0.07777651,-17.139212,-0.29916915,31.0,7,-0.04958727
0.12533283,-42.23938,0.7372944,12.0,8,-0.04956192
0.010524739,-3.7688491,-0.8701107,29.0,1,-0.04955962
0.011307679,-4.3191447,-0.8395596,28.0,2,-0.04955501
0.08830819,-36.139847,3.161836,38.0,10,-0.049552705
0.011680348,-5.1478186,-0.8153365,32.0,3,-0.049550403
0.07624392,-36.402546,4.4696803,48.0,11,-0.0495481
0.012027584,-6.2649403,-0.76923937,46.0,4,-0.049545795
0.06305356,-36.12761,5.7220607,18.0,12,-0.049543492
0.012419189,-7.9057918,-0.691668,39.0,5,-0.049541187
0.05645078,-35.935364,6.985136,38.0,13,-0.049538884
0.01567518,-11.2265835,-0.5883609,43.0,6,-0.04953658
0.041767046,-34.18672,7.892633,28.0,14,-0.049534276
0.018055296,-17.239365,-0.30091438,27.0,7,-0.04953197
0.03022992,-34.640022,9.28177,8.0,15,-0.049529668
-0.022290912,-42.571514,0.7430886,12.0,8,-0.049506627
-0.0026012384,-3.7259903,-0.8602128,38.0,1,-0.049504325
-0.0045578782,-4.3525324,-0.8460471,30.0,2,-0.049499717
-0.044261724,-36.229584,3.1696799,31.0,10,-0.04949741
-0.0071731163,-5.1379504,-0.81377214,34.0,3,-0.04949511
-0.05066663,-36.291428,4.4560313,42.0,11,-0.049492802
-0.009821931,-6.253033,-0.7677769,46.0,4,-0.0494905
-0.06260768,-35.872787,5.6817007,18.0,12,-0.049488194
-0.015002454,-7.8141375,-0.68364966,39.0,5,-0.049485892
-0.075551845,-36.07472,7.0122304,39.0,13,-0.049483586
-0.025815655,-11.378356,-0.596316,50.0,6,-0.049481284
-0.08348206,-34.16521,7.887684,12.0,14,-0.049478978
-0.04317939,-17.671257,-0.30845386,38.0,7,-0.049476676
-0.09231601,-35.26197,9.448448,8.0,15,-0.04947437
-0.17887165,-42.703125,0.7453923,6.0,8,-0.049451333
-0.016478801,-3.7766225,-0.8719103,27.0,1,-0.049449027
-0.019759536,-4.3544536,-0.84642875,31.0,2,-0.04944442
-0.17087753,-36.26109,3.172469,23.0,10,-0.049442116
-0.02543684,-5.205056,-0.8244098,34.0,3,-0.04943981
-0.1840778,-36.368412,4.465537,36.0,11,-0.049437508
-0.032771666,-6.25891,-0.76850814,48.0,4,-0.049435202
-0.19482568,-36.008617,5.703288,30.0,12,-0.0494329
-0.0440869,-7.8937235,-0.6906221,39.0,5,-0.049430594
-0.20123546,-36.031044,7.003835,38.0,13,-0.04942829
-0.06534964,-11.346241,-0.5946412,39.0,6,-0.049425986
-0.20262165,-34.14523,7.883185,21.0,14,-0.049423683
-0.10824096,-17.718971,-0.30929154,50.0,7,-0.049421377
-0.21665376,-34.48094,9.239323,16.0,15,-0.049419075
-0.35155144,-45.77768,0.7990759,7.0,8,-0.049396034
-0.029798975,-3.7940805,-0.87595946,23.0,1,-0.049393732
-0.035333358,-4.3072352,-0.8372699,30.0,2,-0.049389124
-0.31579372,-37.694683,3.2979732,17.0,10,-0.049386818
-0.044514243,-5.204928,-0.8244098,35.0,3,-0.049384516
-0.31177413,-36.454887,4.4762616,6.0,11,-0.04938221
-0.054775223,-6.2766232,-0.7707018,46.0,4,-0.049379908
-0.33222482,-37.323265,5.9116592,6.0,12,-0.0493776
-0.071623005,-7.8915296,-0.6904478,37.0,5,-0.0493753
-0.32822838,-35.48234,6.897364,12.0,13,-0.049372993
-0.108235635,-11.48373,-0.60186356,50.0,6,-0.04937069
-0.3311739,-34.498905,7.965067,3.0,14,-0.049368385
-0.16997428,-17.706488,-0.30908212,46.0,7,-0.049366083
-0.33897388,-34.680878,9.293158,16.0,15,-0.049363777
-0.5113445,-45.776173,0.7990759,7.0,8,-0.049354874
-0.043396883,-3.8251307,-0.88315785,32.0,1,-0.049352568
-0.050271943,-4.364025,-0.8483368,30.0,2,-0.04934796
-0.4257898,-36.41042,3.1857166,47.0,10,-0.049345657
-0.061469592,-5.1790733,-0.8203425,37.0,3,-0.04934335
-0.44028717,-36.55878,4.4891796,12.0,11,-0.04934105
-0.07772665,-6.3617463,-0.7811826,45.0,4,-0.049338743
-0.44351608,-36.300766,5.7499056,12.0,12,-0.04933644
-0.09813781,-7.9191403,-0.69288814,35.0,5,-0.049334135
-0.4468291,-35.555656,6.9118657,12.0,13,-0.049331833
-0.14567801,-11.433381,-0.59924674,39.0,6,-0.049329527
-0.44494668,-34.448906,7.9538193,31.0,14,-0.049327224
-0.22892329,-17.723824,-0.30939627,42.0,7,-0.04932492
-0.4506667,-34.426514,9.225347,24.0,15,-0.049322616
-0.3685158,-25.437458,0.44405904,38.0,8,-0.049299575
-0.056252338,-3.836657,-0.8858573,25.0,1,-0.049297273
-0.06459158,-4.302969,-0.8365067,26.0,2,-0.049292665
-0.07924313,-5.2183437,-0.82659984,37.0,3,-0.049288057
-0.56136703,-36.547195,4.487961,24.0,11,-0.04928575
-0.098853596,-6.363438,-0.7814263,46.0,4,-0.04928345
-0.57032514,-36.304924,5.7508445,12.0,12,-0.049281143
-0.12688695,-7.9884744,-0.69898903,30.0,5,-0.04927884
-0.5988414,-37.701508,7.3293557,13.0,13,-0.049276534
-0.18622172,-11.596588,-0.60782987,42.0,6,-0.049274232
-0.5596567,-34.476463,7.9605675,12.0,14,-0.049271926
-0.29298592,-17.856878,-0.31173488,34.0,7,-0.049269624
-0.58726716,-35.415634,9.490895,17.0,15,-0.049267318
-0.06918471,-3.8111079,-0.8800085,22.0,1,-0.049241975
-0.08055092,-4.3949885,-0.8544427,30.0,2,-0.049237367
-0.46964568,-25.382683,2.221077,4.0,10,-0.049235065
-0.09786398,-5.239761,-0.83004135,40.0,3,-0.04923276
-0.6888215,-36.53906,4.48723,36.0,11,-0.049230456
-0.12197202,-6.4106884,-0.787276,58.0,4,-0.04922815
-0.6989423,-36.401463,5.766488,6.0,12,-0.04922585
-0.15712567,-8.183228,-0.7160716,40.0,5,-0.049223542
-0.7086917,-36.57642,7.11107,26.0,13,-0.04922124
-0.22705191,-11.61384,-0.6087719,45.0,6,-0.049218934
-0.70674336,-35.830364,8.2737,10.0,14,-0.04921663
-0.3615254,-18.167637,-0.31718004,32.0,7,-0.04921433
-0.70627433,-35.183525,9.4292965,17.0,15,-0.049212024
-0.5464371,-25.450258,0.44433826,33.0,8,-0.049188983
-0.082951084,-3.8322744,-0.8849575,19.0,1,-0.04918668
-0.5532526,-25.35516,1.3291241,31.0,9,-0.049184375
-0.095721126,-4.3868294,-0.85291624,23.0,2,-0.049182072
-1.336768,-60.77709,5.318592,24.0,10,-0.049179766
-0.11650333,-5.255186,-0.83254427,40.0,3,-0.049177464
-0.81645644,-36.540398,4.487717,18.0,11,-0.04917516
-0.14448299,-6.416177,-0.7880072,58.0,4,-0.049172856
-0.8471077,-37.328964,5.913849,12.0,12,-0.049170554
-0.18794882,-8.282223,-0.7247871,39.0,5,-0.049168248
-0.8361801,-36.565872,7.109544,26.0,13,-0.049165946
-0.26639447,-11.561062,-0.60605043,38.0,6,-0.04916364
-1.1377587,-49.005405,11.316837,12.0,14,-0.049161337
-0.424424,-18.144274,-0.31679606,40.0,7,-0.04915903
-0.82812446,-35.140285,9.418426,8.0,15,-0.04915673
-0.09603399,-3.8202727,-0.88225806,20.0,1,-0.049131382
-0.6364248,-25.317247,1.32724,5.0,9,-0.04912908
-0.112026624,-4.425721,-0.8605486,28.0,2,-0.049126774
-0.13505013,-5.262647,-0.83379585,40.0,3,-0.04912217
-0.9503556,-36.783398,4.517941,12.0,11,-0.049119864
-0.16688645,-6.4593196,-0.7933695,48.0,4,-0.04911756
-0.9510138,-36.561737,5.792769,12.0,12,-0.049115255
-0.21581617,-8.241683,-0.7213009,40.0,5,-0.049112953
-0.9657763,-36.63731,7.1240454,53.0,13,-0.049110647
-0.31188777,-11.753727,-0.6162036,42.0,6,-0.049108345
-1.0337378,-38.957195,8.997143,15.0,14,-0.04910604
-0.48859537,-18.29269,-0.31941393,32.0,7,-0.049103737
-0.9490117,-35.29956,9.461907,8.0,15,-0.04910143
-0.10936727,-3.8433084,-0.88765687,23.0,1,-0.049076088
-2.392641,-84.080536,4.408258,54.0,9,-0.049073786
-0.1267024,-4.4253254,-0.8605486,30.0,2,-0.04907148
-1.7818725,-61.85796,5.4141145,27.0,10,-0.049069177
-0.15250053,-5.2621703,-0.83379585,42.0,3,-0.04906687
-1.0714623,-36.750282,4.5142846,6.0,11,-0.04906457
-0.18865277,-6.470637,-0.79483193,48.0,4,-0.049062263
-1.0814655,-36.87233,5.8425155,18.0,12,-0.04905996
-0.2432035,-8.242914,-0.72147524,37.0,5,-0.049057655
-1.086567,-36.61035,7.1194654,13.0,13,-0.049055353
-0.35539287,-11.904353,-0.6241587,35.0,6,-0.049053047
-1.0889513,-36.47586,8.424868,24.0,14,-0.049050745
-0.5528554,-18.410896,-0.32150823,36.0,7,-0.04904844
-1.0027822,-33.20112,8.9002695,23.0,15,-0.049046136
-0.12285439,-3.866298,-0.8930557,23.0,1,-0.049020793
-2.6952991,-84.35913,4.423331,54.0,9,-0.049018487
-0.14244206,-4.458239,-0.8670361,31.0,2,-0.049016185
-0.81424206,-25.34606,2.2186365,4.0,10,-0.04901388
-0.16982234,-5.2576866,-0.83317006,32.0,3,-0.049011577
-0.8212371,-25.288654,3.1066935,6.0,11,-0.04900927
-0.2122742,-6.5016837,-0.79873174,50.0,4,-0.04900697
-1.2123673,-36.935455,5.8531523,37.0,12,-0.049004663
-0.27545804,-8.347554,-0.7307138,40.0,5,-0.04900236
-0.39122555,-11.79332,-0.61840177,21.0,6,-0.048997752
-1.2102253,-36.290707,8.383026,35.0,14,-0.048995446
-0.6213372,-18.534763,-0.32370722,40.0,7,-0.048993144
-1.1188698,-33.20321,8.901822,7.0,15,-0.04899084
-0.13586834,-3.8522127,-0.88990635,20.0,1,-0.048965495
-0.15892176,-4.4616113,-0.8677994,31.0,2,-0.048960887
-0.90670747,-25.330957,2.2175908,4.0,10,-0.048958585
-0.19029815,-5.2905884,-0.8384888,30.0,3,-0.04895628
-1.3656827,-37.96813,4.6649156,6.0,11,-0.048953976
-0.23181406,-6.413615,-0.7880072,48.0,4,-0.04895167
-1.3450853,-37.03563,5.869735,12.0,12,-0.04894937
-0.30495825,-8.356496,-0.73158526,39.0,5,-0.048947062
-1.3589633,-37.06097,7.2087646,27.0,13,-0.04894476
-0.44591784,-12.103168,-0.6347305,33.0,6,-0.048942454
-1.3437347,-36.29966,8.386175,31.0,14,-0.048940152
-0.68928725,-18.62041,-0.32524306,40.0,7,-0.04893785
-1.388271,-37.326546,10.008533,19.0,15,-0.048935544
-0.15028988,-3.859478,-0.891706,23.0,1,-0.0489102
-3.3822477,-86.85689,4.555427,56.0,9,-0.048907895
-0.17464778,-4.4649525,-0.8685626,33.0,2,-0.048905592
-0.21024479,-5.327395,-0.84443337,26.0,3,-0.048900984
-2.0004964,-50.46707,6.2014437,11.0,11,-0.04889868
-0.2588735,-6.5019813,-0.79897547,46.0,4,-0.048896376
-1.470746,-36.93991,5.8553424,6.0,12,-0.04889407
-0.33420593,-8.357372,-0.73175967,39.0,5,-0.048891768
-1.595156,-39.716026,7.726238,15.0,13,-0.048889466
-0.49734068,-12.329041,-0.6466631,50.0,6,-0.04888716
-1.4690958,-36.261642,8.378527,31.0,14,-0.048884857
-0.7551713,-18.639868,-0.325627,32.0,7,-0.04888255
-1.4742572,-36.23281,9.716585,9.0,15,-0.04888025
-0.16374597,-3.8745344,-0.8953052,19.0,1,-0.048854902
-0.19056623,-4.472162,-0.8700891,28.0,2,-0.048850294
-0.23044339,-5.3858757,-0.85381943,27.0,3,-0.048845686
-1.0808964,-25.159676,3.0920694,6.0,11,-0.048843384
-0.28111807,-6.5169535,-0.80092543,43.0,4,-0.04884108
-1.6037809,-37.02928,5.8703604,6.0,12,-0.048838776
-0.3669247,-8.437765,-0.7389064,42.0,5,-0.048836473
-1.6060764,-36.933178,7.1858673,26.0,13,-0.048834167
-0.5546885,-12.704445,-0.6664461,36.0,6,-0.048831865
-2.1248567,-48.473183,11.201662,5.0,14,-0.04882956
-0.8223404,-18.685064,-0.3264647,36.0,7,-0.048827257
-1.6827658,-38.084072,10.214553,9.0,15,-0.04882495
-0.17860547,-3.9031398,-0.9020537,20.0,1,-0.048799608
-0.20629643,-4.4911175,-0.8739053,33.0,2,-0.048795
-0.25207362,-5.4462094,-0.86351836,34.0,3,-0.04879039
-1.174518,-25.280674,3.1074247,12.0,11,-0.04878809
-0.30571362,-6.555591,-0.8058002,45.0,4,-0.048785783
-1.706797,-36.463062,5.7815056,6.0,12,-0.04878348
-0.39630103,-8.466355,-0.74152106,39.0,5,-0.048781175
-1.7408854,-37.052856,7.210291,13.0,13,-0.048778873
-0.6025118,-12.776248,-0.670319,46.0,6,-0.048776567
-2.3587286,-49.831955,11.517493,6.0,14,-0.048774265
-0.89439374,-18.825895,-0.32897785,28.0,7,-0.04877196
-1.7227573,-36.12901,9.691739,18.0,15,-0.048769657
-0.19155787,-3.888868,-0.89890444,17.0,1,-0.048744313
-0.22526787,-4.5570393,-0.8868803,34.0,2,-0.048739705
-0.2725563,-5.47489,-0.8682114,32.0,3,-0.048735097
-2.5301704,-50.646027,6.2263055,11.0,11,-0.04873279
-0.33147684,-6.6119795,-0.8128686,45.0,4,-0.04873049
-1.8348614,-36.472668,5.784009,6.0,12,-0.048728183
-0.42405,-8.429103,-0.7383834,39.0,5,-0.04872588
-1.8347778,-36.3446,7.073672,13.0,13,-0.048723575
-0.6431651,-12.696274,-0.66623676,40.0,6,-0.048721272
-2.5256376,-49.685238,11.485551,12.0,14,-0.048718967
-0.96407413,-18.900547,-0.33033916,28.0,7,-0.048716664
-1.8557782,-36.25783,9.727973,9.0,15,-0.04871436
-1.6653669,-31.671415,0.55359036,10.0,8,-0.04869132
-0.20554216,-3.8959596,-0.900704,17.0,1,-0.048689015
-0.24003214,-4.534659,-0.8826825,33.0,2,-0.048684407
-0.29103446,-5.46207,-0.86633414,26.0,3,-0.0486798
-1.9694046,-36.84034,4.529884,6.0,11,-0.048677497
-0.35519376,-6.6226754,-0.814331,48.0,4,-0.04867519
-1.3675898,-25.499048,4.0444574,3.0,12,-0.04867289
-0.45421907,-8.441497,-0.7396036,37.0,5,-0.048670582
-1.965228,-36.404633,7.0866466,13.0,13,-0.04866828
-0.69547254,-12.841533,-0.6739825,43.0,6,-0.048665974
-2.1293046,-39.189823,9.0610285,12.0,14,-0.048663672
-1.036944,-19.084942,-0.33362022,24.0,7,-0.048661366
-1.9774683,-36.278484,9.73522,9.0,15,-0.048659064
-0.22009748,-3.9244423,-0.9074526,16.0,1,-0.04863372
-0.25740838,-4.5612354,-0.8880251,33.0,2,-0.048629113
-0.3084761,-5.449242,-0.864457,32.0,3,-0.048624504
-2.865277,-50.459167,6.2055874,23.0,11,-0.0486222
-0.37726578,-6.623443,-0.8145748,43.0,4,-0.048619896
-2.9259074,-51.211094,8.124269,13.0,12,-0.04861759
-0.4829989,-8.427925,-0.7385577,34.0,5,-0.048615288
-2.085042,-36.38223,7.0835934,13.0,13,-0.048612982
-0.73931414,-12.86109,-0.6751339,33.0,6,-0.04861068
-1.1169503,-19.312782,-0.33766916,24.0,7,-0.04860607
-2.105887,-36.30221,9.743502,9.0,15,-0.04860377
-0.23275143,-3.9061422,-0.90340346,11.0,1,-0.048578423
-0.27426827,-4.575987,-0.89107805,37.0,2,-0.048573814
-0.32820627,-5.459963,-0.86633414,27.0,3,-0.048569206
-3.03841,-50.399323,6.199494,11.0,11,-0.048566904
-0.39619067,-6.5527344,-0.8060439,45.0,4,-0.048564598
-3.1192377,-51.441124,8.162438,13.0,12,-0.048562296
-0.5143502,-8.458008,-0.7413467,26.0,5,-0.048559994
-0.7977871,-13.043692,-0.6848684,20.0,6,-0.048555385
-3.1478894,-51.46749,11.904409,7.0,14,-0.04855308
-1.137589,-18.546314,-0.32433555,24.0,7,-0.048550777
-3.3273563,-54.091995,14.521302,30.0,15,-0.04854847
-4.9705634,-78.78534,1.3779373,60.0,8,-0.04852543
-0.24805097,-3.9208214,-0.9070026,13.0,1,-0.048523128
-0.29228476,-4.5945435,-0.8948942,35.0,2,-0.04851852
-0.34695905,-5.439009,-0.86320543,21.0,3,-0.04851391
-0.4204592,-6.5552,-0.8065314,39.0,4,-0.048509303
-2.3956497,-37.247784,5.9116592,12.0,12,-0.048507
-0.54560244,-8.460042,-0.74169534,27.0,5,-0.048504695
-2.3635895,-36.55013,7.1194654,13.0,13,-0.048502393
-0.862647,-13.303765,-0.69868505,30.0,6,-0.048500087
-3.3549109,-51.73953,11.970096,14.0,14,-0.048497785
-1.2697816,-19.529785,-0.3416134,28.0,7,-0.04849548
-2.3554215,-36.130066,9.701573,18.0,15,-0.048493177
-0.25981656,-3.8809981,-0.8980046,12.0,1,-0.048467834
-0.3096353,-4.6130843,-0.89871037,37.0,2,-0.048463225
-2.1305497,-31.659187,2.7760847,5.0,10,-0.04846092
-0.36888647,-5.4672647,-0.8678985,29.0,3,-0.048458617
-3.5061078,-51.829426,6.378398,12.0,11,-0.04845631
-0.44923308,-6.6408377,-0.8172559,39.0,4,-0.04845401
-0.593514,-8.728428,-0.7654017,34.0,5,-0.0484494
-2.490893,-36.53774,7.1187024,39.0,13,-0.048447095
-0.9146648,-13.382371,-0.70297664,30.0,6,-0.048444793
-2.5582716,-37.42982,8.661515,32.0,14,-0.048442487
-1.346693,-19.652914,-0.34384733,28.0,7,-0.048440184
-2.4774213,-36.06188,9.685527,18.0,15,-0.04843788
-0.27391466,-3.897611,-0.9020537,10.0,1,-0.048412535
-0.32644907,-4.633575,-0.90290827,34.0,2,-0.048407927
-0.39329228,-5.5546813,-0.8819777,31.0,3,-0.04840332
-3.761448,-52.993702,6.523179,12.0,11,-0.048401017
-0.4740636,-6.678913,-0.8221307,39.0,4,-0.04839871
-2.562487,-36.01291,5.718306,6.0,12,-0.04839641
-0.63096,-8.845652,-0.7758604,37.0,5,-0.048394103
-0.9691765,-13.520705,-0.71040833,39.0,6,-0.048389494
-2.676111,-37.333664,8.64127,10.0,14,-0.048387192
-1.4130043,-19.664297,-0.34412655,28.0,7,-0.048384886
-2.7843633,-38.654724,10.384338,10.0,15,-0.048382584
-6.3483386,-86.44803,1.513019,63.0,8,-0.048359543
-0.2874105,-3.9044552,-0.9038533,8.0,1,-0.04835724
-0.34123507,-4.6246347,-0.9013818,34.0,2,-0.048352633
-0.4083512,-5.5080376,-0.87478167,29.0,3,-0.048348024
-2.3545303,-31.68404,3.9010382,4.0,11,-0.04834572
-0.5026823,-6.748484,-0.83090526,35.0,4,-0.048343416
-3.7440617,-50.14561,7.9643927,26.0,12,-0.04834111
-0.6832453,-9.129499,-0.80096126,40.0,5,-0.048338808
-2.9209993,-39.03029,7.607937,14.0,13,-0.048336502
-1.0181915,-13.573186,-0.71333915,40.0,6,-0.0483342
-2.818976,-37.491215,8.679961,7.0,14,-0.048331894
-1.4944091,-19.828737,-0.34709346,24.0,7,-0.04832959
-0.303435,-3.9345157,-0.91105175,9.0,1,-0.048301943
-0.35742477,-4.6135664,-0.89947367,35.0,2,-0.048297334
-0.43052834,-5.532106,-0.8788489,33.0,3,-0.048292726
-4.0376687,-51.882324,6.3896103,12.0,11,-0.048290424
-0.53549886,-6.8654327,-0.84552956,43.0,4,-0.048288118
-4.01869,-51.406418,8.166819,13.0,12,-0.048285816
-0.7129305,-9.09925,-0.7985209,39.0,5,-0.04828351
-1.073416,-13.63905,-0.7170027,18.0,6,-0.048278905
-2.9772096,-37.74484,8.741148,7.0,14,-0.0482766
-1.5681757,-19.881212,-0.3481057,28.0,7,-0.048274297
-4.0035467,-50.6439,13.6123295,23.0,15,-0.04827199
-0.3180107,-3.9353194,-0.91150165,11.0,1,-0.04824665
-0.37542826,-4.6357727,-0.9040531,35.0,2,-0.04824204
-7.3914404,-91.071526,7.993924,63.0,10,-0.048239734
-0.44663435,-5.4911923,-0.8725915,26.0,3,-0.04823743
-4.356497,-53.446037,6.5841136,13.0,11,-0.04823513
-0.5652657,-6.9347486,-0.85430413,39.0,4,-0.048232824
-2.5785651,-31.566072,5.016228,5.0,12,-0.04823052
-0.7437133,-9.084791,-0.79747504,39.0,5,-0.048228215
-1.1247829,-13.681003,-0.7194101,16.0,6,-0.048223607
-3.14244,-38.222248,8.854074,3.0,14,-0.048221305
-1.6362514,-19.859674,-0.34782645,20.0,7,-0.048219
-3.1126947,-37.699306,10.135872,9.0,15,-0.048216697
-0.33334678,-3.9614298,-0.91780037,7.0,1,-0.048191354
-0.39244875,-4.654065,-0.9078693,37.0,2,-0.048186745
-0.4641742,-5.481807,-0.87134004,22.0,3,-0.048182137
-0.5857418,-6.9031672,-0.8506481,46.0,4,-0.04817753
-4.1944594,-49.33087,7.841435,12.0,12,-0.048175223
-0.7756954,-9.104114,-0.7993925,39.0,5,-0.04817292
-1.1480123,-13.4185,-0.7058028,15.0,6,-0.048168313
-3.2435918,-37.9126,8.784788,15.0,14,-0.048166007
-1.7333581,-20.218744,-0.35421404,25.0,7,-0.048163705
-3.240666,-37.723423,10.145189,19.0,15,-0.0481614
-7.8569126,-89.98589,1.5766853,63.0,8,-0.04813836
-0.3490293,-3.9894223,-0.9245488,6.0,1,-0.048136055
-0.40770817,-4.650782,-0.9074876,34.0,2,-0.048131447
-0.4917028,-5.5864983,-0.88823503,31.0,3,-0.04812684
-0.6033988,-6.8418636,-0.8433359,46.0,4,-0.04812223
-0.80816627,-9.127291,-0.8016586,40.0,5,-0.048117623
-4.634482,-52.23727,10.193781,32.0,13,-0.04811532
-1.185782,-13.339021,-0.70182526,20.0,6,-0.048113015
-3.4619555,-38.944004,9.026386,12.0,14,-0.048110712
-1.8302006,-20.547512,-0.36007807,26.0,7,-0.048108406
-3.3592193,-37.639347,10.125519,9.0,15,-0.048106104
-0.3603174,-3.9668946,-0.91959995,6.0,1,-0.04808076
-8.2040205,-90.32171,4.753047,58.0,9,-0.048078455
-0.42241696,-4.6415844,-0.90596116,33.0,2,-0.048076153
-0.51202303,-5.6045084,-0.89136374,33.0,3,-0.048071545
-0.6324165,-6.9090137,-0.8518668,45.0,4,-0.048066936
-0.8490031,-9.239634,-0.81176853,42.0,5,-0.04806233
-1.3543864,-14.683433,-0.7727928,36.0,6,-0.04805772
-3.5019436,-37.96594,8.802335,37.0,14,-0.048055414
-1.9078978,-20.644869,-0.3618931,26.0,7,-0.048053112
-3.451603,-37.277905,10.031309,9.0,15,-0.048050806
-0.37137046,-3.9286854,-0.91105175,8.0,1,-0.048065107
-9.220762,-97.36414,5.12547,62.0,9,-0.048062805
-0.44109234,-4.657595,-0.90939575,33.0,2,-0.0480605
-0.533122,-5.6084933,-0.89230233,31.0,3,-0.04805589
-0.66063744,-6.92432,-0.8540604,45.0,4,-0.048051283
-5.472419,-57.25215,9.10918,17.0,12,-0.04804898
-0.8913935,-9.325711,-0.81961256,43.0,5,-0.048046675
-3.7294526,-38.945576,7.6048837,14.0,13,-0.048044372
-1.2819271,-13.362227,-0.7035,1.0,6,-0.048042066
-3.6736116,-38.22184,8.864871,15.0,14,-0.048039764
-1.9915628,-20.683176,-0.36269593,30.0,7,-0.04803746
-3.5921128,-37.237453,10.024062,19.0,15,-0.048035156
-0.39249793,-4.0030036,-0.928598,7.0,1,-0.048009813
-0.45696396,-4.652119,-0.90863246,33.0,2,-0.048005205
-0.5567652,-5.6478815,-0.89887255,22.0,3,-0.048000596
-0.6932085,-7.0069156,-0.8645412,45.0,4,-0.04799599
-0.9186345,-9.269011,-0.8149062,43.0,5,-0.04799138
-3.8971827,-39.25272,7.667469,14.0,13,-0.047989074
-1.4758312,-14.838325,-0.7814806,44.0,6,-0.047986772
-3.7697155,-37.834538,8.77804,11.0,14,-0.047984466
-2.0714946,-20.753698,-0.36405718,21.0,7,-0.047982164
-3.6582665,-36.586494,9.852206,9.0,15,-0.047979858
-0.40804368,-4.0171194,-0.93219715,6.0,1,-0.047954515
-0.47677758,-4.685653,-0.91550165,35.0,2,-0.047949906
-0.5772787,-5.653764,-0.900124,26.0,3,-0.0479453
-0.72535086,-7.0794945,-0.8738033,45.0,4,-0.04794069
-5.503299,-53.620434,8.537255,15.0,12,-0.047938388
-0.9593242,-9.347008,-0.8220529,49.0,5,-0.047936082
-1.5294576,-14.850963,-0.7824226,36.0,6,-0.047931474
-3.9143639,-37.943268,8.806384,15.0,14,-0.04792917
-2.1531763,-20.83585,-0.3656279,8.0,7,-0.04792687
-3.8086283,-36.792564,9.911217,18.0,15,-0.047924563
-0.4249159,-4.0428033,-0.9384959,6.0,1,-0.04789922
-0.49456915,-4.6976275,-0.91817296,34.0,2,-0.047894612
-0.600954,-5.6890388,-0.9060685,21.0,3,-0.047890004
-0.75340533,-7.1085033,-0.8777031,45.0,4,-0.047885396
-0.9923665,-9.347566,-0.8224016,45.0,5,-0.047880787
-1.5764209,-14.799854,-0.7800152,19.0,6,-0.04787618
-4.210523,-39.46406,9.162706,4.0,14,-0.047873877
-2.3094032,-21.609642,-0.37934554,22.0,7,-0.04787157
-0.43481573,-4.0025487,-0.9294977,2.0,1,-0.047843922
-0.5113888,-4.699776,-0.9189362,34.0,2,-0.047839314
-0.62831116,-5.7556367,-0.91701895,29.0,3,-0.04783471
-0.7773507,-7.097937,-0.8767281,45.0,4,-0.0478301
-1.0262922,-9.355927,-0.82344747,43.0,5,-0.047825493
-1.3563867,-12.345257,2.4141154,37.0,13,-0.047823187
-1.6180247,-14.702938,-0.77520025,19.0,6,-0.047820885
-5.590643,-50.72058,11.780686,13.0,14,-0.04781858
-2.3911293,-21.693295,-0.38095114,27.0,7,-0.047816277
-4.0114937,-36.335667,9.795266,18.0,15,-0.04781397
-0.45220724,-4.0378804,-0.93804586,3.0,1,-0.047788627
-0.52757186,-4.6960115,-0.91855454,37.0,2,-0.04778402
-0.6504866,-5.781003,-0.9213991,28.0,3,-0.04777941
-6.422727,-56.990532,7.041855,14.0,11,-0.04777711
-0.819809,-7.2629886,-0.8974459,52.0,4,-0.047774803
-1.0567039,-9.33249,-0.8217043,42.0,5,-0.047770195
-1.395551,-12.325085,2.4110627,40.0,13,-0.047767892
-1.6723995,-14.747106,-0.7778171,31.0,6,-0.047765587
-5.6275067,-49.5458,11.512095,6.0,14,-0.047763284
-2.5104618,-22.068283,-0.38768774,18.0,7,-0.04776098
-4.1566753,-36.482674,9.838747,9.0,15,-0.047758676
-0.47211373,-4.08661,-0.94974333,3.0,1,-0.047733333
-0.54427,-4.703987,-0.92046267,34.0,2,-0.047728725
-0.67384976,-5.806168,-0.9257793,31.0,3,-0.047724117
-6.595037,-56.739033,7.0135813,14.0,11,-0.04772181
-0.84549403,-7.274033,-0.8991521,48.0,4,-0.04771951
-1.4371809,-12.345699,1.9685715,15.0,12,-0.047717202
-1.0945681,-9.388305,-0.8269337,43.0,5,-0.0477149
-5.767234,-49.3917,9.666002,29.0,13,-0.047712594
-1.6125132,-13.788982,-0.7275745,2.0,6,-0.047710292
-5.759184,-49.248146,11.4473095,25.0,14,-0.047707986
-2.6210809,-22.379604,-0.39330745,9.0,7,-0.047705684
-4.3374953,-36.97906,9.976439,9.0,15,-0.047703378
-0.48336235,-4.0656705,-0.9452443,2.0,1,-0.047678035
-0.5621873,-4.7216516,-0.92427886,34.0,2,-0.047673427
-1.4366716,-12.048298,1.0615569,33.0,10,-0.047671124
-0.6935687,-5.8078246,-0.926405,35.0,3,-0.04766882
-0.8712613,-7.284986,-0.9008582,46.0,4,-0.04766421
-1.4738832,-12.305562,1.9629399,39.0,12,-0.047661908
-1.1437267,-9.534966,-0.84018135,42.0,5,-0.047659602
-1.4946319,-12.442001,2.4358678,43.0,13,-0.0476573
-1.7820433,-14.812716,-0.7818993,19.0,6,-0.047654994
-5.8919744,-48.975315,11.388372,12.0,14,-0.04765269
-2.7861729,-23.125216,-0.40657127,4.0,7,-0.04765039
-4.4804645,-37.13325,10.021991,9.0,15,-0.047648083
-0.50157166,-4.102732,-0.95424235,4.0,1,-0.04762274
-0.5835673,-4.76653,-0.93343765,34.0,2,-0.047618132
-1.4543109,-11.861529,1.0455203,57.0,10,-0.047615826
-0.71812075,-5.8486266,-0.9332881,31.0,3,-0.047613524
-6.7623615,-54.99569,6.8034787,13.0,11,-0.047611218
-0.90372044,-7.3390374,-0.9079267,48.0,4,-0.047608916
-6.044354,-49.015118,7.822037,12.0,12,-0.04760661
-1.1853386,-9.612195,-0.84732807,43.0,5,-0.047604308
-1.531071,-12.398008,2.4282355,60.0,13,-0.047602005
-1.8752774,-15.163515,-0.80074024,20.0,6,-0.0475997
-6.528756,-52.71601,12.263432,7.0,14,-0.047597397
-1.5303348,-12.32134,3.3268602,19.0,15,-0.04759279
-7.0316434,-55.97548,0.9847346,24.0,8,-0.047569748
-0.52002484,-4.1338263,-0.9618907,6.0,1,-0.047567442
-0.59971136,-4.760568,-0.93267435,31.0,2,-0.047562834
-1.4922143,-11.828708,1.0430799,49.0,10,-0.04756053
-0.7390272,-5.850004,-0.9339139,24.0,3,-0.047558226
-7.0494647,-55.724056,6.896587,14.0,11,-0.047555923
-0.9353216,-7.3831015,-0.9137764,50.0,4,-0.04755362
-1.5520496,-12.234223,1.953241,1.0,12,-0.047551315
-1.2266567,-9.669272,-0.85273176,42.0,5,-0.047549013
-1.578049,-12.421802,2.4339597,43.0,13,-0.047546707
-1.9496231,-15.325285,-0.8096373,29.0,6,-0.047544405
-6.6674123,-52.33721,12.18065,7.0,14,-0.0475421
-3.3281367,-26.088566,-0.4590681,5.0,7,-0.047539797
-1.5787222,-12.35808,3.3382483,54.0,15,-0.04753749
-7.213936,-55.849453,0.98295444,24.0,8,-0.04751445
-0.5299515,-4.0971985,-0.95379245,6.0,1,-0.047512148
-0.6143074,-4.7428703,-0.92962146,31.0,2,-0.04750754
-7.3548393,-56.706608,5.0027394,21.0,10,-0.047505237
-0.77318186,-5.9531703,-0.95080876,37.0,3,-0.04750293
-1.5893378,-12.220536,1.5131298,50.0,11,-0.04750063
-0.96595794,-7.417193,-0.91840744,46.0,4,-0.047498323
-1.5881044,-12.177803,1.9451064,1.0,12,-0.04749602
-1.2632357,-9.686665,-0.85464925,40.0,5,-0.047493715
-1.6198744,-12.404537,2.43167,46.0,13,-0.047491413
-2.0170891,-15.425327,-0.8152896,49.0,6,-0.047489107
-6.8472805,-52.292362,12.175701,15.0,14,-0.047486804
-3.4711812,-26.473333,-0.46604905,5.0,7,-0.0474845
-1.6165682,-12.312271,3.3273778,53.0,15,-0.047482196
-7.407259,-55.81203,0.982745,12.0,8,-0.047459155
-0.54835784,-4.1262317,-0.9609909,7.0,1,-0.047456853
-7.4208517,-55.765205,2.9482942,11.0,9,-0.047454547
-0.6401825,-4.8107567,-0.94335973,30.0,2,-0.047452245
-0.78612006,-5.8916945,-0.9414227,37.0,3,-0.047447637
-1.6314619,-12.210979,1.5126424,16.0,11,-0.04744533
-0.99368477,-7.427549,-0.9201136,48.0,4,-0.04744303
-1.6169648,-12.0703745,1.9288372,35.0,12,-0.047440723
-1.3211141,-9.861898,-0.8705116,31.0,5,-0.04743842
-1.6707343,-12.4552355,2.4427369,36.0,13,-0.047436114
-2.0794299,-15.481537,-0.81863916,54.0,6,-0.047433812
-1.7052977,-12.679317,2.9536076,21.0,14,-0.047431506
-3.6436348,-27.055597,-0.4765205,5.0,7,-0.047429204
-1.6556637,-12.277835,3.3196132,12.0,15,-0.047426898
-7.4837656,-54.91799,0.9674567,11.0,8,-0.04740386
-0.5640751,-4.1339464,-0.9632404,13.0,1,-0.047401555
-7.602217,-55.641994,2.9431653,33.0,9,-0.047399253
-0.64793545,-4.7423563,-0.93038476,27.0,2,-0.047396947
-1.6403074,-11.990093,1.0587679,16.0,10,-0.047394644
-0.81123817,-5.922186,-0.9467415,39.0,3,-0.04739234
-1.6740751,-12.20521,1.5126424,38.0,11,-0.047390036
-1.0260892,-7.471235,-0.92596334,45.0,4,-0.04738773
-1.6617785,-12.084226,1.9319658,22.0,12,-0.047385428
-1.3834871,-10.060529,-0.8884656,28.0,5,-0.047383122
-2.1258204,-15.418784,-0.8157083,47.0,6,-0.047378514
-3.820195,-27.636972,-0.48699194,5.0,7,-0.047373906
-7.360571,-53.181133,14.385681,29.0,15,-0.047371604
-7.7585044,-55.485664,0.97792816,12.0,8,-0.047348563
-0.582555,-4.1609015,-0.96998894,13.0,1,-0.04734626
-7.801661,-55.652706,2.945154,11.0,9,-0.047343954
-0.6792028,-4.8450546,-0.9509921,31.0,2,-0.047341652
-1.6863035,-12.01389,1.0613827,44.0,10,-0.047339346
-0.8360295,-5.94866,-0.95143455,35.0,3,-0.047337044
-1.7241379,-12.252367,1.5192233,2.0,11,-0.047334738
-1.0524386,-7.4695725,-0.92620707,46.0,4,-0.047332436
-1.7047783,-12.084221,1.9329045,41.0,12,-0.04733013
-1.4275028,-10.11877,-0.89404356,36.0,5,-0.047327828
-1.8175079,-12.867051,2.5259297,12.0,13,-0.04732552
-2.1835432,-15.438956,-0.81717366,49.0,6,-0.04732322
-1.7686356,-12.48959,2.9122164,25.0,14,-0.047320917
-7.291461,-51.36103,13.900136,25.0,15,-0.04731631
-7.96746,-55.565132,0.979813,12.0,8,-0.04729327
-0.5956911,-4.149197,-0.9677394,13.0,1,-0.047290962
-8.072462,-56.227528,2.9769742,11.0,9,-0.04728866
-0.70337456,-4.89318,-0.96091413,36.0,2,-0.047286354
-1.7370273,-12.069065,1.0667863,33.0,10,-0.04728405
-0.8610154,-5.9750338,-0.9561276,31.0,3,-0.047281746
-1.0782223,-7.4638886,-0.92596334,45.0,4,-0.047277138
-1.7682836,-12.240771,1.9588726,22.0,12,-0.047274835
-1.5058814,-10.411477,-0.9203646,45.0,5,-0.047272533
-1.8449649,-12.740163,2.5022693,9.0,13,-0.047270227
-2.2431543,-15.470771,-0.8192671,29.0,6,-0.047267925
-7.295573,-50.193336,13.590589,23.0,15,-0.04726101
-10.509686,-71.603806,1.2632401,44.0,8,-0.04723797
-0.6196472,-4.216608,-0.9839359,24.0,1,-0.047235668
-0.7187335,-4.8790407,-0.9586244,31.0,2,-0.04723106
-1.7861242,-12.110232,1.0709697,16.0,10,-0.047228757
-0.8912011,-6.0424976,-0.9673909,24.0,3,-0.04722645
-1.8222868,-12.3405,1.5316541,50.0,11,-0.04722415
-1.1160318,-7.5486407,-0.93693155,46.0,4,-0.047221843
-1.8225715,-12.312688,1.9713873,39.0,12,-0.04721954
-1.5655823,-10.563827,-0.93430954,45.0,5,-0.047217235
-8.009028,-54.041225,10.619285,34.0,13,-0.047214933
-2.3457441,-15.808985,-0.8375848,33.0,6,-0.047212627
-8.120599,-54.662476,12.758325,8.0,14,-0.047210325
-7.6312275,-51.245243,13.882537,25.0,15,-0.047205716
-0.630591,-4.1893682,-0.9780871,21.0,1,-0.047180373
-1.7821888,-11.826054,0.6267755,46.0,9,-0.047178067
-0.729058,-4.837804,-0.9509921,33.0,2,-0.047175765
-8.47564,-56.175198,4.970318,20.0,10,-0.04717346
-0.9181883,-6.0784144,-0.97364825,40.0,3,-0.047171157
-1.8718815,-12.377245,1.5370163,56.0,11,-0.04716885
-1.1498054,-7.593767,-0.94302505,56.0,4,-0.04716655
-1.8291221,-12.066025,1.9329045,45.0,12,-0.047164243
-1.5928397,-10.5073595,-0.92977744,45.0,5,-0.04716194
-1.8992352,-12.513798,2.4602914,3.0,13,-0.047159635
-1.879447,-12.3688545,-0.6556649,10.0,6,-0.047157332
-8.838328,-58.09778,13.567248,10.0,14,-0.047155026
-7.951002,-52.142624,14.133074,27.0,15,-0.04715042
-0.6561914,-4.2584043,-0.99473363,24.0,1,-0.047125075
-1.8252859,-11.831604,0.6274035,47.0,9,-0.047122773
-0.7447435,-4.8274684,-0.94946563,30.0,2,-0.047120467
-1.8809824,-12.178526,1.0781165,30.0,10,-0.047118165
-0.9164589,-5.9268074,-0.9498702,26.0,3,-0.04711586
-1.918112,-12.390253,1.5394537,56.0,11,-0.047113556
-1.1796492,-7.6112857,-0.9457062,52.0,4,-0.04711125
-1.9181768,-12.362128,1.9813992,46.0,12,-0.04710895
-1.6420332,-10.5824585,-0.9369243,41.0,5,-0.047106642
-1.9404943,-12.49157,2.4572382,6.0,13,-0.04710434
-1.9253722,-12.379981,-0.656607,47.0,6,-0.047102034
-7.9923396,-51.33103,11.99349,7.0,14,-0.04709973
-0.663465,-4.2079635,-0.983486,22.0,1,-0.04706978
-0.76893663,-4.8713813,-0.9586244,36.0,2,-0.047065172
-1.9244137,-12.17779,1.0786394,16.0,10,-0.047062866
-0.95627975,-6.04454,-0.969268,28.0,3,-0.047060564
-1.2093184,-7.6267276,-0.94814354,48.0,4,-0.047055956
-1.952663,-12.31473,1.974829,39.0,12,-0.04705365
-1.6852105,-10.616017,-0.9404105,39.0,5,-0.047051348
-2.557612,-16.075476,-0.8530762,38.0,6,-0.04704674
-8.700535,-54.624474,12.770021,8.0,14,-0.047044434
-7.834826,-49.134098,13.33177,21.0,15,-0.04703983
-0.67524636,-4.1922727,-0.9803367,25.0,1,-0.047014482
-0.79156756,-4.9035544,-0.9654936,30.0,2,-0.047009874
-1.976766,-12.231972,1.0840431,55.0,10,-0.047007572
-0.98514324,-6.095938,-0.9780284,30.0,3,-0.047005266
-2.0065258,-12.402385,1.5426223,2.0,11,-0.047002964
-1.2447593,-7.685382,-0.9559432,43.0,4,-0.047000658
-2.0114477,-12.4053335,1.9904724,58.0,12,-0.046998356
-1.7251303,-10.627769,-0.9419792,46.0,5,-0.04699605
-2.5952072,-15.970307,-0.8479473,23.0,6,-0.046991445
-8.355942,-51.36392,12.014186,7.0,14,-0.04698914
-2.01219,-12.355313,-0.21850413,68.0,7,-0.046986837
-8.029915,-49.251358,13.37111,21.0,15,-0.04698453
-0.6930417,-4.2091184,-0.98483574,36.0,1,-0.046959188
-0.81069773,-4.918336,-0.9689281,31.0,2,-0.04695458
-2.0461864,-12.400306,1.0995568,22.0,10,-0.046952274
-1.0102789,-6.1158504,-0.98178285,26.0,3,-0.04694997
-2.0485106,-12.38747,1.5416473,26.0,11,-0.04694767
-1.2735252,-7.69274,-0.9574056,43.0,4,-0.046945363
-2.0628111,-12.446957,1.998294,50.0,12,-0.04694306
-1.7597115,-10.61806,-0.94163066,46.0,5,-0.046940755
-2.06355,-12.424518,-0.6600611,31.0,6,-0.046936147
-8.49331,-51.082615,11.955249,14.0,14,-0.046933845
-0.6329736,-3.7703717,-1.0244058,1.0,0,-0.046908498
-2.0763576,-12.354831,0.21867865,67.0,8,-0.046906196
-0.7145192,-4.2470303,-0.9942836,27.0,1,-0.046903893
-0.82786113,-4.9154763,-0.9689281,31.0,2,-0.046899285
-2.0523608,-12.173044,1.0800339,55.0,10,-0.04689698
-1.0286616,-6.094756,-0.978967,24.0,3,-0.046894677
-2.077849,-12.298037,1.5314103,36.0,11,-0.04689237
-1.3285087,-7.8546176,-0.97812337,41.0,4,-0.04689007
-2.102621,-12.418257,1.9948525,16.0,12,-0.046887763
-1.8050814,-10.660962,-0.94598836,45.0,5,-0.04688546
-2.7487335,-16.199907,-0.8611359,49.0,6,-0.046880852
-8.587383,-50.556976,11.839173,14.0,14,-0.046878546
-2.1161635,-12.445448,-0.22035408,28.0,7,-0.046876244
-8.478582,-49.811146,13.538824,23.0,15,-0.04687394
-0.6382946,-3.7224417,-1.0119824,1.0,0,-0.046853203
-0.7293404,-4.24451,-0.9942836,27.0,1,-0.046848595
-2.1266098,-12.363217,0.65744436,55.0,9,-0.046846293
-0.8470108,-4.9241657,-0.9712178,31.0,2,-0.046843987
-2.1107295,-12.258091,1.0882267,55.0,10,-0.046841685
-1.0599974,-6.149528,-0.9883531,26.0,3,-0.04683938
-2.130891,-12.349393,1.5387224,42.0,11,-0.046837077
-1.3778799,-7.977081,-0.9939664,46.0,4,-0.04683477
-2.1432624,-12.395269,1.9923496,45.0,12,-0.04683247
-1.8399069,-10.640854,-0.9447682,45.0,5,-0.046830162
-2.8093576,-16.21383,-0.86239195,47.0,6,-0.046825554
-9.144462,-52.72134,12.353413,7.0,14,-0.046823252
-2.159934,-12.439956,-0.22038898,4.0,7,-0.046820946
-0.6486194,-3.7049677,-1.0078415,1.0,0,-0.04679791
-2.1811984,-12.446397,0.22056352,25.0,8,-0.046795603
-0.73640704,-4.197791,-0.9839359,25.0,1,-0.0467933
-2.141426,-12.194411,0.6488612,36.0,9,-0.046790995
-0.8869453,-5.050735,-0.9967863,27.0,2,-0.046788692
-2.1579916,-12.276159,1.0904927,24.0,10,-0.046786387
-1.084195,-6.161354,-0.990856,24.0,3,-0.046784084
-2.1605554,-12.2656355,1.5292166,10.0,11,-0.04678178
-1.4005475,-7.9428983,-0.9903104,45.0,4,-0.046779476
-2.1909795,-12.413002,1.9964169,46.0,12,-0.04677717
-1.8960859,-10.74228,-0.95435536,39.0,5,-0.046774868
-2.862807,-16.186224,-0.86144996,40.0,6,-0.04677026
-8.756327,-49.457676,11.5957775,26.0,14,-0.046767954
-8.940184,-50.39367,13.713787,24.0,15,-0.046763346
-0.6588301,-3.6874673,-1.0037004,1.0,0,-0.046723127
-2.221463,-12.420992,0.22024937,1.0,8,-0.046720825
-0.76307535,-4.262334,-0.9996825,30.0,1,-0.04671852
-2.1720014,-12.120021,0.6453024,27.0,9,-0.046716217
-0.90110725,-5.028284,-0.9929701,31.0,2,-0.04671391
-2.2085686,-12.311695,1.0943274,33.0,10,-0.04671161
-1.0997612,-6.1244793,-0.98553723,22.0,3,-0.046709303
-2.2068682,-12.277557,1.5316541,18.0,11,-0.046707
-1.4398644,-8.002435,-0.9983537,31.0,4,-0.046704695
-2.2413003,-12.444159,2.0026743,13.0,12,-0.046702392
-1.9378113,-10.759126,-0.9564471,41.0,5,-0.046700086
-9.275515,-51.448093,10.161725,32.0,13,-0.046697784
-2.9263825,-16.215443,-0.86354333,42.0,6,-0.04669548
-9.554568,-52.890175,12.4083,8.0,14,-0.046693176
-9.054094,-50.019978,13.620612,23.0,15,-0.046688568
-0.67550796,-3.7060509,-1.0093943,3.0,0,-0.046667833
-0.77164716,-4.2251377,-0.9915842,32.0,1,-0.046663225
-2.2132177,-12.106471,0.64498836,12.0,9,-0.04666092
-0.92112523,-5.038626,-0.9956414,30.0,2,-0.046658617
-2.2515297,-12.303911,1.0943274,33.0,10,-0.04665631
-1.1357249,-6.2002683,-0.9983649,24.0,3,-0.04665401
-2.2192812,-12.103812,1.5109363,4.0,11,-0.046651702
-1.4835579,-8.083268,-1.0090783,48.0,4,-0.0466494
-2.2790127,-12.405173,1.9976684,31.0,12,-0.046647094
-1.981475,-10.785609,-0.95941037,45.0,5,-0.046644792
-2.9648914,-16.106916,-0.8583098,35.0,6,-0.046640184
-9.663558,-52.44637,12.312021,7.0,14,-0.046637878
-9.28196,-50.276833,13.699293,24.0,15,-0.04663327
-0.6979727,-3.754952,-1.0233705,4.0,0,-0.046612535
