x,y,z,intensity,ring,time
5.642389,-10.183328,0.61013263,38.0,9,-0.057613783
1.5833043,-2.857532,-0.6350123,51.0,2,-0.05761148
9.470767,-17.09979,1.71017,6.0,10,-0.057609178
1.7671669,-3.1919942,-0.577869,51.0,3,-0.057606872
2.0053492,-3.625203,-0.50868267,38.0,4,-0.057602264
2.2839632,-4.1305737,-0.41294393,46.0,5,-0.057597656
2.7034156,-4.8931904,-0.2929767,39.0,6,-0.057593048
39.279484,-71.12531,18.758217,29.0,14,-0.057590745
3.3061152,-5.9890165,-0.11940937,31.0,7,-0.05758844
1.2953932,-2.3543644,-0.7200346,44.0,0,-0.057565402
4.196768,-7.630736,0.15201046,57.0,8,-0.057563096
1.4326284,-2.605941,-0.6865506,43.0,1,-0.057560794
5.680872,-10.33774,0.6181924,31.0,9,-0.057558488
1.5742655,-2.8647623,-0.635394,49.0,2,-0.057556186
9.858982,-17.948256,1.7915735,21.0,10,-0.05755388
1.7531617,-3.1929486,-0.5769304,49.0,3,-0.057551578
32.514847,-59.24221,8.297597,35.0,11,-0.05754927
1.9831343,-3.6147766,-0.5062453,43.0,4,-0.05754697
2.285817,-4.168219,-0.4159072,38.0,5,-0.05754236
2.6652043,-4.8640633,-0.29067394,43.0,6,-0.057537753
3.2890303,-6.007536,-0.119548984,38.0,7,-0.057533145
1.2964205,-2.3758297,-0.72521096,41.0,0,-0.057510104
4.219898,-7.7366276,0.1538255,73.0,8,-0.0575078
1.4263217,-2.616059,-0.6879003,36.0,1,-0.057505496
5.719221,-10.489793,0.62614745,52.0,9,-0.057503194
1.5604981,-2.8633447,-0.63386756,50.0,2,-0.057500888
9.316847,-17.102505,1.7038947,6.0,10,-0.057498585
1.7391717,-3.1938443,-0.57599175,45.0,3,-0.05749628
1.9714533,-3.6234207,-0.50648904,47.0,4,-0.05749167
2.2731566,-4.1796727,-0.4162558,37.0,5,-0.057487063
2.6606061,-4.8961506,-0.2920347,42.0,6,-0.057482455
39.167065,-72.10675,18.944477,30.0,14,-0.057480153
3.2605,-6.0025954,-0.11923484,40.0,7,-0.057477847
1.278006,-2.3616512,-0.719517,45.0,0,-0.05745481
4.2513227,-7.856099,0.15591979,85.0,8,-0.057452504
1.4185659,-2.6224885,-0.68835026,43.0,1,-0.0574502
5.7053685,-10.551859,0.6286596,33.0,9,-0.057447895
1.5458262,-2.860139,-0.63195944,55.0,2,-0.057445593
9.3110695,-17.23484,1.7138306,3.0,10,-0.057443287
1.740777,-3.2221878,-0.58005905,50.0,3,-0.057440985
1.9716848,-3.652647,-0.5096576,48.0,4,-0.057436377
2.2509873,-4.1735535,-0.41486132,34.0,5,-0.05743177
2.636773,-4.890882,-0.29119727,39.0,6,-0.05742716
38.86117,-72.11272,18.912086,30.0,14,-0.05742486
3.240476,-6.0157003,-0.11926974,40.0,7,-0.057422552
1.2747362,-2.3743868,-0.7221052,41.0,0,-0.05739951
4.2598057,-7.9378486,0.15724619,72.0,8,-0.05739721
1.4112455,-2.6308587,-0.68925005,43.0,1,-0.057394903
5.656231,-10.548827,0.62729883,36.0,9,-0.0573926
1.5465381,-2.8842816,-0.6361572,52.0,2,-0.057390295
10.176243,-18.986563,1.8846557,7.0,10,-0.057387993
1.7267201,-3.2230206,-0.57912046,47.0,3,-0.057385687
1.9711015,-3.6822593,-0.51282626,45.0,4,-0.05738108
40.09326,-74.93055,13.459936,63.0,12,-0.057378776
2.2399547,-4.1862655,-0.41538426,34.0,5,-0.057376474
2.6065016,-4.8753977,-0.2897319,39.0,6,-0.057371866
38.55779,-72.15168,18.88689,30.0,14,-0.05736956
3.226995,-6.0410857,-0.119548984,42.0,7,-0.057367258
1.2591776,-2.36518,-0.71796405,42.0,0,-0.057344217
4.1991916,-7.890884,0.15602452,67.0,8,-0.05734191
1.3993078,-2.6306074,-0.6879003,37.0,1,-0.05733961
5.63344,-10.594958,0.62886894,32.0,9,-0.057337303
1.5309309,-2.8792617,-0.63386756,52.0,2,-0.057335
9.936917,-18.696493,1.8524082,7.0,10,-0.0573327
1.708045,-3.2150726,-0.5766175,41.0,3,-0.057330392
1.9573057,-3.6873636,-0.51258254,48.0,4,-0.057325784
39.738873,-74.895546,13.428649,63.0,12,-0.057323482
2.2412033,-4.2239785,-0.41834757,41.0,5,-0.057321176
2.602564,-4.9091706,-0.29119727,40.0,6,-0.057316568
3.2058878,-6.0523133,-0.119548984,38.0,7,-0.05731196
1.2581289,-2.383228,-0.7221052,42.0,0,-0.05728892
4.213618,-7.9850802,0.15759523,72.0,8,-0.057286616
1.3828434,-2.6216867,-0.6843011,36.0,1,-0.057284314
5.6551056,-10.7258625,0.63546324,31.0,9,-0.05728201
1.5162927,-2.8759048,-0.63195944,48.0,2,-0.057279706
10.2348,-19.420238,1.9205639,11.0,10,-0.0572774
1.6894467,-3.2070334,-0.57411456,47.0,3,-0.057275098
1.9490452,-3.7029567,-0.51380116,41.0,4,-0.05727049
2.238505,-4.2546983,-0.42061362,46.0,5,-0.05726588
2.5891292,-4.9252973,-0.29161596,39.0,6,-0.057261273
3.1996193,-6.091793,-0.120107464,36.0,7,-0.057256665
1.2524899,-2.3927402,-0.7236581,39.0,0,-0.057233624
4.227438,-8.079472,0.15916595,67.0,8,-0.057231322
1.3727804,-2.6247709,-0.68385124,40.0,1,-0.057229016
5.660196,-10.826957,0.64027816,50.0,9,-0.057226714
1.5007871,-2.8707411,-0.6296697,55.0,2,-0.057224408
9.901194,-18.947289,1.8703622,3.0,10,-0.057222106
1.6892166,-3.2339222,-0.577869,40.0,3,-0.0572198
1.9315153,-3.7009382,-0.51258254,42.0,4,-0.05721519
39.125504,-74.99951,13.397987,63.0,12,-0.05721289
2.2217968,-4.258953,-0.42026496,53.0,5,-0.057210583
2.6088479,-5.0051494,-0.29580286,35.0,6,-0.057205975
39.296627,-75.42383,19.634628,37.0,14,-0.057203673
3.1875725,-6.1206603,-0.12045651,36.0,7,-0.057201367
1.2476898,-2.403956,-0.72572863,45.0,0,-0.05717833
4.1992097,-8.094179,0.15916595,76.0,8,-0.057176024
1.3618156,-2.626087,-0.68295145,47.0,1,-0.05717372
5.71796,-11.03106,0.651164,37.0,9,-0.057171416
1.4844332,-2.8637614,-0.6269984,59.0,2,-0.057169113
10.183301,-19.653969,1.9366006,7.0,10,-0.057166807
1.6742839,-3.2327828,-0.5766175,41.0,3,-0.057164505
1.9121985,-3.695317,-0.51087636,47.0,4,-0.057159897
2.2096627,-4.2719917,-0.4207879,45.0,5,-0.05715529
2.6170359,-5.063906,-0.29873365,42.0,6,-0.05715068
39.12255,-75.73367,19.679617,37.0,14,-0.057148375
3.1698577,-6.138857,-0.12059613,33.0,7,-0.057146072
1.2357552,-2.4014258,-0.7236581,45.0,0,-0.05712303
4.166356,-8.0998955,0.15899143,63.0,8,-0.05712073
1.3579872,-2.641223,-0.6856508,40.0,1,-0.057118423
5.708633,-11.107797,0.65451354,35.0,9,-0.05711612
1.4744277,-2.8689256,-0.6269984,55.0,2,-0.057113815
10.1437645,-19.746105,1.9421785,3.0,10,-0.057111513
1.6647937,-3.2421217,-0.5772432,47.0,3,-0.057109207
1.8992878,-3.7019694,-0.51087636,47.0,4,-0.0571046
2.1992834,-4.2885437,-0.42165947,48.0,5,-0.05709999
2.6111834,-5.0961185,-0.3000944,36.0,6,-0.057095386
3.163901,-6.1801443,-0.12118951,27.0,7,-0.057090778
1.2335106,-2.4177706,-0.7272816,41.0,0,-0.057067737
4.1653104,-8.167832,0.16003856,78.0,8,-0.05706543
1.3416791,-2.6320577,-0.6820516,44.0,1,-0.05706313
5.6890006,-11.160476,0.6565023,45.0,9,-0.057060823
1.4626215,-2.870556,-0.6262351,52.0,2,-0.05705852
10.3198185,-20.262526,1.9894168,7.0,10,-0.057056215
1.6480898,-3.237351,-0.575366,46.0,3,-0.057053912
1.8870015,-3.708247,-0.51087636,47.0,4,-0.057049304
2.1824937,-4.2926416,-0.42131084,49.0,5,-0.057044696
2.5798104,-5.0784917,-0.29852432,33.0,6,-0.057040088
38.1825,-75.16425,19.463665,35.0,14,-0.057037786
3.157875,-6.2191305,-0.121747985,27.0,7,-0.05703548
1.2263583,-2.4235713,-0.7277992,45.0,0,-0.05701244
4.143618,-8.1923065,0.160248,78.0,8,-0.057010137
1.3259094,-2.6225796,-0.6784524,53.0,1,-0.057007834
5.712336,-11.298701,0.6635153,36.0,9,-0.05700553
1.4619492,-2.8929129,-0.6300513,55.0,2,-0.057003226
10.548117,-20.881721,2.0467653,8.0,10,-0.05700092
1.6409065,-3.2498517,-0.5766175,46.0,3,-0.056998618
1.8648553,-3.69499,-0.50819516,38.0,4,-0.05699401
2.16735,-4.2980766,-0.42113656,41.0,5,-0.0569894
2.559361,-5.079884,-0.29810563,33.0,6,-0.056984793
37.128124,-73.69283,19.050655,31.0,14,-0.056982487
3.1606193,-6.2760043,-0.12265551,38.0,7,-0.056980185
1.2174485,-2.425898,-0.7272816,48.0,0,-0.056957144
4.1209116,-8.214939,0.16042252,58.0,8,-0.056954842
1.3163321,-2.62522,-0.6780025,51.0,1,-0.056952536
5.5584583,-11.085482,0.64990795,25.0,9,-0.056950234
1.4488294,-2.8907242,-0.62852484,51.0,2,-0.056947928
10.478812,-20.916588,2.0467653,4.0,10,-0.056945626
1.6283518,-3.2517426,-0.57599175,43.0,3,-0.05694332
1.8552575,-3.7064793,-0.5089264,47.0,4,-0.05693871
2.1718,-4.3426614,-0.42479706,46.0,5,-0.056934103
2.5916016,-5.1866083,-0.3038626,38.0,6,-0.056929495
36.920128,-73.88876,19.069551,31.0,14,-0.056927193
3.1630218,-6.332964,-0.12356304,38.0,7,-0.056924887
1.2042323,-2.4195452,-0.7241757,43.0,0,-0.05690185
4.120368,-8.282271,0.16146967,67.0,8,-0.056899544
1.3128254,-2.6400402,-0.6807019,47.0,1,-0.05689724
5.824028,-11.711891,0.6854964,55.0,9,-0.056894936
1.4374876,-2.8919966,-0.62776166,52.0,2,-0.056892633
14.831304,-29.851295,2.9162312,6.0,10,-0.056890327
1.6245886,-3.2712784,-0.5784947,45.0,3,-0.056888025
1.8482524,-3.7232797,-0.51038885,47.0,4,-0.056883417
2.1565018,-4.348055,-0.42462277,45.0,5,-0.05687881
2.5868027,-5.220228,-0.30532798,38.0,6,-0.0568742
3.1313522,-6.3219147,-0.12314418,40.0,7,-0.056869593
1.1915166,-2.41722,-0.7221052,44.0,0,-0.05681491
4.05937,-8.238836,0.16031781,67.0,8,-0.056812607
1.3044007,-2.6485581,-0.6816017,48.0,1,-0.0568103
5.83549,-11.84884,0.6921954,27.0,9,-0.056808
1.4263725,-2.8974948,-0.62776166,48.0,2,-0.056805693
14.852038,-30.183325,2.9430752,13.0,10,-0.05680339
1.6189905,-3.291673,-0.5809977,40.0,3,-0.056801084
37.220974,-75.709694,10.358651,63.0,11,-0.056798782
1.8245363,-3.7128527,-0.5079515,40.0,4,-0.056796476
2.1397905,-4.356303,-0.42462277,35.0,5,-0.056791868
2.5465019,-5.1888833,-0.30292055,36.0,6,-0.05678726
37.369633,-76.179924,19.589638,36.0,14,-0.056784958
3.1229074,-6.366208,-0.12377247,42.0,7,-0.05678265
1.1847677,-2.424836,-0.7231404,47.0,0,-0.056759614
4.0873313,-8.365444,0.1625168,63.0,8,-0.05675731
1.2802174,-2.6213496,-0.67350346,41.0,1,-0.056755006
5.792342,-11.865548,0.6919861,28.0,9,-0.0567527
1.4265809,-2.9236293,-0.632341,54.0,2,-0.056750398
15.120405,-31.001425,3.0176802,14.0,10,-0.056748092
1.6020043,-3.2845955,-0.5788076,50.0,3,-0.05674579
1.8113446,-3.717099,-0.5077078,38.0,4,-0.05674118
2.142014,-4.3995733,-0.428109,34.0,5,-0.056736574
2.5371466,-5.213463,-0.3038626,42.0,6,-0.056731965
3.1076612,-6.391457,-0.124051705,38.0,7,-0.056727357
1.1758777,-2.427013,-0.7226228,45.0,0,-0.056704316
4.086869,-8.439053,0.16366866,76.0,8,-0.056702014
1.2719083,-2.6275566,-0.67395335,53.0,1,-0.056699708
5.846576,-12.08346,0.7035,30.0,9,-0.056697406
1.4134575,-2.921275,-0.6308146,55.0,2,-0.0566951
15.191013,-31.410122,3.0525427,14.0,10,-0.056692798
1.5965476,-3.3026166,-0.5809977,41.0,3,-0.05669049
1.7983582,-3.723399,-0.5077078,42.0,4,-0.056685884
2.1256814,-4.403064,-0.4277604,37.0,5,-0.056681275
2.5440958,-5.274456,-0.3068981,43.0,6,-0.056676667
3.1044314,-6.4418974,-0.124819614,33.0,7,-0.056672063
1.1623815,-2.4206538,-0.719517,45.0,0,-0.05664902
4.071231,-8.482112,0.16422716,80.0,8,-0.056646716
1.2736869,-2.6548212,-0.67980206,43.0,1,-0.056644414
5.792272,-12.078581,0.7020346,27.0,9,-0.056642108
1.403252,-2.9261909,-0.6308146,52.0,2,-0.056639805
15.235432,-31.784555,3.0837443,14.0,10,-0.0566375
1.5901302,-3.3188581,-0.5828749,39.0,3,-0.056635197
1.793921,-3.747559,-0.5101451,50.0,4,-0.05663059
2.1120179,-4.4140515,-0.428109,35.0,5,-0.05662598
2.5205004,-5.272493,-0.30627003,42.0,6,-0.056621373
3.0836496,-6.456303,-0.12488942,38.0,7,-0.056616765
1.1530948,-2.4229522,-0.7189993,43.0,0,-0.056593724
4.0656495,-8.546834,0.16520448,63.0,8,-0.05659142
1.2736169,-2.6786103,-0.68475103,47.0,1,-0.056589115
5.9009633,-12.416212,0.72045684,26.0,9,-0.056586813
1.3829163,-2.9097931,-0.6262351,54.0,2,-0.056584507
15.1440525,-31.878939,3.0877535,7.0,10,-0.056582205
1.5810778,-3.3297417,-0.5838135,38.0,3,-0.056579903
1.7952933,-3.7842872,-0.51428866,45.0,4,-0.056575295
2.0761096,-4.378191,-0.42392552,37.0,5,-0.056570686
2.505501,-5.288479,-0.30668873,43.0,6,-0.05656608
3.0773487,-6.501369,-0.12555261,33.0,7,-0.05656147
1.1446297,-2.4269626,-0.7189993,48.0,0,-0.05653843
4.0349383,-8.559165,0.16516958,46.0,8,-0.056536123
1.2684125,-2.6918538,-0.6870005,45.0,1,-0.05653382
5.7869515,-12.286764,0.71176904,32.0,9,-0.05653152
1.3786066,-2.9270356,-0.6289065,56.0,2,-0.056529213
1.5669222,-3.329878,-0.5828749,36.0,3,-0.056524605
1.7829174,-3.7923272,-0.5145324,43.0,4,-0.056519996
2.0794559,-4.4250827,-0.4277604,37.0,5,-0.05651539
2.5082464,-5.34239,-0.30930555,42.0,6,-0.05651078
3.0835102,-6.5736256,-0.12673938,30.0,7,-0.05650617
1.1394231,-2.4379437,-0.7210699,49.0,0,-0.056483135
4.0490484,-8.667408,0.16698463,65.0,8,-0.05648083
1.2499386,-2.676842,-0.6820516,43.0,1,-0.056478526
5.90335,-12.642489,0.73123807,22.0,9,-0.05647622
1.3667204,-2.9282715,-0.62814325,56.0,2,-0.05647392
15.571409,-33.377785,3.222322,24.0,10,-0.056471612
1.5552888,-3.3353279,-0.5828749,38.0,3,-0.05646931
1.7612857,-3.780534,-0.51209503,42.0,4,-0.056464702
2.0690434,-4.4431505,-0.42880625,35.0,5,-0.056460094
2.4946373,-5.361978,-0.30993357,42.0,6,-0.056455486
3.1046977,-6.676289,-0.12851952,27.0,7,-0.056450877
1.1349654,-2.4506714,-0.7236581,50.0,0,-0.056427836
4.000115,-8.6372385,0.1661469,87.0,8,-0.056425534
1.245967,-2.6915832,-0.68475103,44.0,1,-0.05642323
6.0135064,-12.996543,0.7504977,36.0,9,-0.056420926
1.3647313,-2.950844,-0.63195944,48.0,2,-0.05641862
15.523364,-33.58024,3.2366157,8.0,10,-0.056416318
1.5508513,-3.3548114,-0.5853778,38.0,3,-0.056414012
1.7595594,-3.8097818,-0.5152636,47.0,4,-0.056409404
2.0401657,-4.4214005,-0.42601725,49.0,5,-0.056404795
2.4902263,-5.3992395,-0.3116083,42.0,6,-0.056400187
34.628323,-75.11463,19.095644,32.0,14,-0.056397885
3.0863943,-6.6979833,-0.12872896,27.0,7,-0.056395583
1.1268327,-2.4544215,-0.7236581,50.0,0,-0.056372542
4.005804,-8.7293005,0.16764782,55.0,8,-0.056370236
1.2390015,-2.7012298,-0.6861007,45.0,1,-0.056367934
5.9939075,-13.073735,0.7537425,28.0,9,-0.056365628
1.3524843,-2.9499993,-0.6308146,42.0,2,-0.056363326
15.566306,-33.968426,3.2690377,16.0,10,-0.05636102
1.530905,-3.342245,-0.58224916,38.0,3,-0.056358717
1.7495545,-3.8231206,-0.5162386,53.0,4,-0.05635411
2.0470402,-4.4752493,-0.43054935,45.0,5,-0.0563495
2.468044,-5.4006324,-0.31118962,38.0,6,-0.056344893
34.025856,-74.49057,18.906687,30.0,14,-0.05634259
3.083759,-6.754192,-0.12960157,34.0,7,-0.056340285
1.116658,-2.4548228,-0.7226228,51.0,0,-0.056317244
4.043178,-8.8925,0.17051001,58.0,8,-0.05631494
1.235209,-2.717957,-0.68925005,47.0,1,-0.056312636
5.850762,-12.880004,0.74139124,20.0,9,-0.056310333
1.3454262,-2.9618526,-0.632341,41.0,2,-0.056308027
15.629674,-34.42348,3.3075602,25.0,10,-0.056305725
1.533107,-3.3781483,-0.5875679,40.0,3,-0.05630342
1.7337394,-3.8237808,-0.51550734,55.0,4,-0.056298815
2.0248265,-4.4678497,-0.42915487,45.0,5,-0.056294207
2.4607108,-5.4346876,-0.31265503,35.0,6,-0.0562896
3.1129117,-6.8815203,-0.13183548,34.0,7,-0.05628499
1.1025263,-2.4463768,-0.7189993,48.0,0,-0.05626195
4.0359297,-8.959434,0.17152224,50.0,8,-0.056259643
1.2329143,-2.7382448,-0.6932992,50.0,1,-0.05625734
1.3415252,-2.980853,-0.635394,42.0,2,-0.056252733
15.561729,-34.59412,3.3187165,17.0,10,-0.05625043
1.5148251,-3.3690662,-0.585065,45.0,3,-0.056248125
1.7228215,-3.8352416,-0.5162386,61.0,4,-0.056243517
1.9977933,-4.449445,-0.4267145,44.0,5,-0.05623891
2.449082,-5.459645,-0.31359708,42.0,6,-0.0562343
33.430035,-74.55915,18.864395,30.0,14,-0.056231998
3.0917106,-6.895455,-0.13190529,34.0,7,-0.056229692
1.0971307,-2.4572666,-0.7210699,47.0,0,-0.056206655
3.9678814,-8.886947,0.16988172,51.0,8,-0.05620435
1.2238274,-2.742318,-0.6932992,50.0,1,-0.056202047
5.858965,-13.134763,0.7537425,33.0,9,-0.05619974
1.3311114,-2.985518,-0.635394,42.0,2,-0.05619744
15.48873,-34.755596,3.3290007,17.0,10,-0.056195132
1.5084692,-3.3848965,-0.5869422,40.0,3,-0.05619283
1.6987901,-3.8155453,-0.51282626,53.0,4,-0.056188222
1.9879181,-4.469134,-0.4279347,46.0,5,-0.056183614
2.4650424,-5.5443864,-0.31799328,41.0,6,-0.056179006
3.074116,-6.920825,-0.13218452,34.0,7,-0.056174397
1.0928849,-2.4697244,-0.7236581,51.0,0,-0.056151357
3.9190397,-8.860511,0.16911381,61.0,8,-0.056149054
1.2087317,-2.734097,-0.69014984,44.0,1,-0.05614675
5.925289,-13.409067,0.7682919,33.0,9,-0.056144446
1.3354875,-3.0222392,-0.6422631,42.0,2,-0.05614214
15.739655,-35.636024,3.4083126,18.0,10,-0.056139838
1.4886667,-3.3720703,-0.5838135,45.0,3,-0.056137532
1.6958754,-3.8450637,-0.51599485,55.0,4,-0.056132924
1.96505,-4.457471,-0.4261916,52.0,5,-0.056128316
2.4472842,-5.556613,-0.31820264,41.0,6,-0.056123707
32.9406,-74.82778,18.875193,30.0,14,-0.056121405
3.0773213,-6.993745,-0.1333713,35.0,7,-0.0561191
1.0881346,-2.4823709,-0.7262463,49.0,0,-0.056096062
3.9402497,-8.993191,0.17138264,64.0,8,-0.056093756
1.2023073,-2.74544,-0.6919495,44.0,1,-0.056091454
5.935309,-13.559575,0.77572364,27.0,9,-0.056089148
1.3202062,-3.0160913,-0.6399734,39.0,2,-0.056086846
15.760514,-36.022957,3.440037,18.0,10,-0.05608454
1.4753039,-3.3736267,-0.58318776,41.0,3,-0.056082238
1.6792643,-3.8436837,-0.5150199,51.0,4,-0.05607763
1.9829663,-4.5409904,-0.4335127,34.0,5,-0.05607302
2.4430466,-5.5999045,-0.3201914,45.0,6,-0.056068413
33.44879,-76.70717,19.319696,34.0,14,-0.05606611
3.048097,-6.9934454,-0.13316187,33.0,7,-0.056063805
1.077155,-2.480838,-0.72469336,50.0,0,-0.056040764
3.9024634,-8.992215,0.1711034,70.0,8,-0.05603846
1.1958189,-2.756771,-0.69374907,44.0,1,-0.056036156
5.9983754,-13.834918,0.790273,37.0,9,-0.056033853
1.3081083,-3.0170789,-0.63921016,42.0,2,-0.056031547
15.702802,-36.234974,3.4550278,27.0,10,-0.056029245
1.4713701,-3.3968823,-0.58631647,47.0,3,-0.05602694
1.661895,-3.8404129,-0.51380116,41.0,4,-0.05602233
1.9528658,-4.5149684,-0.43037504,34.0,5,-0.056017727
2.4321997,-5.6285653,-0.3213428,45.0,6,-0.05601312
3.0030587,-6.95631,-0.13225435,23.0,7,-0.05600851
1.070015,-2.4881322,-0.72572863,46.0,0,-0.05598547
3.864734,-8.991084,0.17082416,50.0,8,-0.055983163
1.1892656,-2.7680905,-0.69554865,44.0,1,-0.05598086
5.936647,-13.824575,0.78849363,26.0,9,-0.055978555
1.302991,-3.0342543,-0.64188147,46.0,2,-0.055976253
15.667382,-36.50194,3.4752479,28.0,10,-0.05597395
1.456389,-3.394736,-0.585065,46.0,3,-0.055971645
1.6555179,-3.8626115,-0.51599485,38.0,4,-0.055967037
1.9684763,-4.595014,-0.4373475,37.0,5,-0.05596243
2.423539,-5.662727,-0.3228082,48.0,6,-0.05595782
2.9850483,-6.9814587,-0.13253358,21.0,7,-0.055953212
1.0658653,-2.5025163,-0.7288345,45.0,0,-0.05593017
3.813745,-8.958523,0.16995154,70.0,8,-0.05592787
1.175018,-2.761466,-0.6928493,44.0,1,-0.055925567
5.9454174,-13.979382,0.79613465,36.0,9,-0.05592326
1.2931602,-3.0405905,-0.6422631,42.0,2,-0.05592096
15.616259,-36.736103,3.4923308,19.0,10,-0.055918653
1.44453,-3.399799,-0.585065,49.0,3,-0.05591635
1.6381458,-3.8592303,-0.5147761,36.0,4,-0.055911742
1.9391956,-4.570677,-0.4343842,31.0,5,-0.055907134
2.4076548,-5.680347,-0.32333156,45.0,6,-0.055902526
31.923037,-75.35219,18.89319,30.0,14,-0.05590022
2.9427269,-6.949483,-0.13173077,28.0,7,-0.055897918
1.0548713,-2.5008817,-0.7272816,44.0,0,-0.055874877
3.8414896,-9.111821,0.1726043,54.0,8,-0.055872574
1.1623443,-2.7583673,-0.69104964,43.0,1,-0.05587027
5.9927173,-14.228292,0.809114,26.0,9,-0.055867966
1.2848251,-3.050514,-0.643408,47.0,2,-0.05586566
15.586105,-37.0236,3.514468,19.0,10,-0.055863358
1.4464439,-3.4375947,-0.59069663,39.0,3,-0.055861052
1.633127,-3.885055,-0.5174573,33.0,4,-0.055856444
1.8954463,-4.5112915,-0.428109,31.0,5,-0.055851836
2.3831747,-5.6776667,-0.32270354,45.0,6,-0.055847228
31.64173,-75.42003,18.882391,30.0,14,-0.055844925
2.926956,-6.979998,-0.13211471,21.0,7,-0.05584262
1.0468793,-2.5063312,-0.7277992,46.0,0,-0.055819582
3.8705225,-9.270955,0.17536178,48.0,8,-0.055817276
1.1557109,-2.7696016,-0.6928493,43.0,1,-0.055814974
5.99683,-14.3781595,0.816441,28.0,9,-0.055812668
1.2741686,-3.0549805,-0.643408,49.0,2,-0.055810366
15.51274,-37.21203,3.5271928,19.0,10,-0.05580806
1.435955,-3.4462695,-0.59132236,39.0,3,-0.055805758
1.633287,-3.9237194,-0.52184457,37.0,4,-0.05580115
1.9256078,-4.628252,-0.43856767,36.0,5,-0.05579654
2.3495429,-5.652754,-0.32081944,45.0,6,-0.055791933
2.9347825,-7.067739,-0.13358071,22.0,7,-0.055787325
1.0381244,-2.5099702,-0.7277992,39.0,0,-0.055764284
3.866404,-9.352787,0.17665327,66.0,8,-0.05576198
1.149757,-2.7826242,-0.69509876,48.0,1,-0.055759676
6.0716367,-14.701752,0.8336072,30.0,9,-0.055757374
1.2590008,-3.0485218,-0.6411182,49.0,2,-0.055755068
15.477773,-37.49616,3.5489817,19.0,10,-0.055752765
1.4178894,-3.4366524,-0.5888194,41.0,3,-0.05575046
1.6263888,-3.945915,-0.5240382,41.0,4,-0.05574585
1.9147528,-4.647841,-0.43978783,37.0,5,-0.055741243
2.3662827,-5.749575,-0.3258437,50.0,6,-0.05573664
2.9625607,-7.205554,-0.13598914,27.0,7,-0.05573203
1.0286249,-2.511791,-0.7272816,41.0,0,-0.05570899
3.8276727,-9.35142,0.17637403,58.0,8,-0.055706684
1.1348715,-2.7739954,-0.6919495,44.0,1,-0.05570438
5.724128,-13.9916315,0.7922618,22.0,9,-0.055702075
1.256525,-3.0728874,-0.64531606,54.0,2,-0.055699773
15.301569,-37.439297,3.5385232,19.0,10,-0.055697467
1.410367,-3.4525528,-0.59069663,39.0,3,-0.055695165
1.6268563,-3.9864888,-0.52866924,41.0,4,-0.055690557
1.8789532,-4.606531,-0.4352558,33.0,5,-0.05568595
2.3552425,-5.779995,-0.32709977,50.0,6,-0.05568134
31.988077,-78.54106,19.57884,36.0,14,-0.05567904
2.9733481,-7.3005295,-0.13759477,31.0,7,-0.055676732
1.0227538,-2.5225272,-0.72935206,42.0,0,-0.05565369
3.8116684,-9.401126,0.17707212,72.0,8,-0.05565139
1.1293261,-2.7867737,-0.69419897,41.0,1,-0.055649087
5.6362624,-13.915265,0.7868188,2.0,9,-0.05564678
1.2457913,-3.0772545,-0.64531606,55.0,2,-0.05564448
15.241037,-37.666096,3.5549083,20.0,10,-0.055642173
1.4003919,-3.4608731,-0.59132236,39.0,3,-0.05563987
1.6203232,-4.0084257,-0.5308629,44.0,4,-0.055635262
1.8844962,-4.666638,-0.44031078,39.0,5,-0.055630654
2.3241024,-5.75814,-0.32542503,48.0,6,-0.055626046
2.9650447,-7.3535204,-0.13839759,37.0,7,-0.055621438
1.0208628,-2.5420394,-0.7340109,45.0,0,-0.055598397
3.7661664,-9.382825,0.17647873,50.0,8,-0.055596095
1.1166887,-2.7834644,-0.6923993,41.0,1,-0.05559379
6.029589,-15.0293865,0.84867996,31.0,9,-0.055591486
1.2385025,-3.0886576,-0.64684254,59.0,2,-0.05558918
15.231677,-38.00493,3.582101,10.0,10,-0.05558688
1.3897717,-3.4694078,-0.5919481,46.0,3,-0.055584572
1.6077965,-4.017743,-0.5313504,49.0,4,-0.055579964
1.8734505,-4.6839604,-0.44135666,39.0,5,-0.055575356
2.3039875,-5.766218,-0.32542503,46.0,6,-0.055570748
31.418032,-78.670105,19.557243,36.0,14,-0.055568445
2.946577,-7.378169,-0.13867682,51.0,7,-0.05556614
1.0112695,-2.543792,-0.7334932,47.0,0,-0.055543102
3.7860036,-9.523481,0.17888717,50.0,8,-0.055540796
1.1067326,-2.7853413,-0.6919495,44.0,1,-0.055538494
1.232784,-3.1057353,-0.64951384,57.0,2,-0.055533886
15.619114,-39.369064,3.7055135,11.0,10,-0.05553158
1.3957422,-3.518065,-0.59945697,43.0,3,-0.055529278
1.5966583,-4.028589,-0.5320816,56.0,4,-0.05552467
1.8600228,-4.697881,-0.4420539,40.0,5,-0.05552006
2.2922037,-5.792397,-0.32647175,37.0,6,-0.055515453
2.9237452,-7.3958483,-0.13881645,60.0,7,-0.055510845
0.9995545,-2.5401158,-0.73142266,48.0,0,-0.053791523
3.8828177,-9.872262,0.18517004,56.0,8,-0.05378922
1.0943779,-2.783938,-0.69059974,45.0,1,-0.053786915
5.4765997,-13.931672,0.78451604,1.0,9,-0.053784613
1.2183456,-3.1008832,-0.6476057,51.0,2,-0.053782307
15.7685375,-40.154022,3.774192,11.0,10,-0.053780004
1.3741779,-3.5010912,-0.5957025,40.0,3,-0.0537777
1.5796859,-4.026746,-0.53110665,44.0,4,-0.05377309
1.847975,-4.715475,-0.44309977,39.0,5,-0.053768482
2.3088195,-5.89747,-0.33191466,42.0,6,-0.053763874
2.9037402,-7.420907,-0.13909568,51.0,7,-0.053759266
0.9911253,-2.5434167,-0.73142266,47.0,0,-0.05373623
3.8602183,-9.911171,0.18565871,54.0,8,-0.053733923
1.0936233,-2.8093433,-0.69599855,45.0,1,-0.05373162
5.439066,-13.972091,0.78577214,1.0,9,-0.053729314
1.2066321,-3.101247,-0.64684254,48.0,2,-0.053727012
16.24765,-41.78076,3.9220085,12.0,10,-0.053724706
1.3625603,-3.5056288,-0.5957025,43.0,3,-0.053722404
1.5656058,-4.0301123,-0.5308629,46.0,4,-0.053717796
1.8380944,-4.7364373,-0.44449428,39.0,5,-0.053713188
2.2820306,-5.8864717,-0.33086795,44.0,6,-0.05370858
2.8993447,-7.4827037,-0.14007302,54.0,7,-0.05370397
0.9799035,-2.5394797,-0.72935206,49.0,0,-0.05368093
3.8237336,-9.914588,0.18548417,46.0,8,-0.053678628
1.0814976,-2.8056815,-0.69419897,41.0,1,-0.053676322
5.3809247,-13.966764,0.7844114,2.0,9,-0.05367402
1.1970471,-3.1070635,-0.6472241,46.0,2,-0.053671714
16.277979,-42.273205,3.963146,13.0,10,-0.05366941
1.3537661,-3.5175023,-0.596954,41.0,3,-0.053667106
1.5565149,-4.0485225,-0.5325691,49.0,4,-0.053662498
1.809514,-4.7090297,-0.44135666,39.0,5,-0.05365789
2.289696,-5.9648614,-0.33484548,48.0,6,-0.05365328
2.8989835,-7.5599957,-0.14132959,39.0,7,-0.053648677
0.977925,-2.5609324,-0.7345285,47.0,0,-0.053625636
3.8568408,-10.105359,0.18880014,57.0,8,-0.05362333
1.0675298,-2.7985148,-0.69149953,39.0,1,-0.053621028
1.1959863,-3.1369054,-0.6525668,51.0,2,-0.05361642
16.334642,-42.865963,4.0133476,13.0,10,-0.053614113
1.3393697,-3.5166683,-0.5960154,33.0,3,-0.05361181
1.5430794,-4.055786,-0.53281283,46.0,4,-0.053607203
1.7973137,-4.7264915,-0.44240254,40.0,5,-0.053602595
2.2688606,-5.972818,-0.33484548,48.0,6,-0.053597987
2.9243665,-7.7065516,-0.14387764,30.0,7,-0.05359338
0.9676143,-2.5607162,-0.7334932,44.0,0,-0.053570338
3.790456,-10.0364485,0.18726432,63.0,8,-0.053568035
1.0646365,-2.820456,-0.69599855,37.0,1,-0.05356573
5.974191,-15.835307,0.88698983,31.0,9,-0.053563427
1.182257,-3.1337132,-0.6510403,42.0,2,-0.05356112
16.135704,-42.792225,4.001146,13.0,10,-0.05355882
1.3208168,-3.504686,-0.59319955,46.0,3,-0.053556517
1.5282135,-4.0592904,-0.5325691,52.0,4,-0.05355191
1.7737882,-4.714089,-0.44065943,40.0,5,-0.0535473
2.2655659,-6.0274405,-0.33746228,44.0,6,-0.053542692
2.92697,-7.795339,-0.14534363,30.0,7,-0.053538084
0.95596325,-2.5568402,-0.73142266,44.0,0,-0.053515043
3.7574987,-10.055238,0.18736903,49.0,8,-0.053512737
1.0500124,-2.811376,-0.6928493,43.0,1,-0.053510435
6.0006003,-16.07499,0.8992365,20.0,9,-0.053508133
1.1658182,-3.123107,-0.64798737,43.0,2,-0.053505827
16.22581,-43.490437,4.0611086,13.0,10,-0.053503525
1.3251395,-3.5536962,-0.6007084,40.0,3,-0.05350122
1.5299717,-4.107385,-0.5381751,46.0,4,-0.05349661
1.7802612,-4.7818694,-0.4464117,37.0,5,-0.053492002
2.2424242,-6.029696,-0.33714828,42.0,6,-0.053487394
2.9157593,-7.848623,-0.14614646,36.0,7,-0.053482786
0.948373,-2.563785,-0.73245794,44.0,0,-0.05345975
3.7480347,-10.137691,0.18866052,57.0,8,-0.053457443
1.0509992,-2.8442712,-0.7000477,44.0,1,-0.05345514
6.0247183,-16.313171,0.91137844,31.0,9,-0.053452834
1.1617115,-3.1455739,-0.65180355,49.0,2,-0.053450532
16.31676,-44.20474,4.1224666,14.0,10,-0.053448226
1.3031543,-3.5323546,-0.59632826,39.0,3,-0.053445924
1.517684,-4.118289,-0.53890634,45.0,4,-0.053441316
1.7711338,-4.80862,-0.44832912,39.0,5,-0.053436708
2.213087,-6.0149937,-0.3358922,48.0,6,-0.0534321
2.923526,-7.9544764,-0.1479266,46.0,7,-0.05342749
0.9407457,-2.5707085,-0.7334932,43.0,0,-0.05340445
3.7455947,-10.240856,0.19033594,63.0,8,-0.05340215
1.0303596,-2.818638,-0.6928493,44.0,1,-0.053399842
6.0129743,-16.457918,0.9182868,30.0,9,-0.05339754
1.1588088,-3.1717384,-0.656383,46.0,2,-0.053395234
1.2874302,-3.5276034,-0.59476393,32.0,3,-0.053390626
1.5155375,-4.1571317,-0.5432936,49.0,4,-0.053386018
1.7475172,-4.796053,-0.446586,40.0,5,-0.05338141
2.1948094,-6.030189,-0.33631086,42.0,6,-0.0533768
21.471268,-59.02387,14.500346,12.0,14,-0.0533745
2.9080405,-7.9984612,-0.14855488,50.0,7,-0.053372197
0.93834203,-2.5921414,-0.7386696,43.0,0,-0.053349156
3.758128,-10.387378,0.19281419,59.0,8,-0.05334685
1.0297922,-2.847874,-0.6991479,44.0,1,-0.053344548
5.8999567,-16.316236,0.909285,20.0,9,-0.05334224
1.1443938,-3.1665323,-0.65447485,42.0,2,-0.05333994
1.2777911,-3.539508,-0.5960154,36.0,3,-0.05333533
1.5043846,-4.171734,-0.5445123,55.0,4,-0.053330723
1.7598133,-4.8827214,-0.4540814,42.0,5,-0.053326115
2.1575103,-5.9927135,-0.33379877,48.0,6,-0.053321507
21.23871,-59.025112,14.482349,12.0,14,-0.053319205
2.888271,-8.026877,-0.14890394,46.0,7,-0.0533169
0.9247299,-2.5826695,-0.73504615,40.0,0,-0.053293858
3.7317514,-10.422375,0.19323304,52.0,8,-0.053291555
1.0183728,-2.845769,-0.6977982,56.0,1,-0.05328925
5.886011,-16.45709,0.915984,15.0,9,-0.053286947
1.1201167,-3.1335337,-0.64684254,38.0,2,-0.05328464
1.2866495,-3.6013927,-0.6057143,45.0,3,-0.053280033
1.4872061,-4.167351,-0.5432936,52.0,4,-0.05327543
1.7561394,-4.926369,-0.45756766,37.0,5,-0.05327082
2.1530428,-6.043108,-0.33620623,48.0,6,-0.053266212
20.868969,-58.606888,14.362675,49.0,14,-0.053263906
2.8649282,-8.050097,-0.14914827,40.0,7,-0.053261604
0.9193861,-2.5948267,-0.7376343,41.0,0,-0.053238563
3.7153728,-10.491888,0.19428019,42.0,8,-0.053236257
1.0162346,-2.8713512,-0.703197,52.0,1,-0.053233955
5.9743943,-16.889898,0.93890715,26.0,9,-0.05323165
1.1241232,-3.1779501,-0.65523815,39.0,2,-0.053229347
1.2892064,-3.6487002,-0.61291033,37.0,3,-0.05322474
1.4726503,-4.172517,-0.5432936,59.0,4,-0.05322013
1.7325022,-4.911497,-0.4556502,39.0,5,-0.053215522
2.1359177,-6.0618887,-0.33683425,30.0,6,-0.053210914
2.84876,-8.094003,-0.14977656,37.0,7,-0.053206306
0.9052126,-2.5834348,-0.7334932,41.0,0,-0.05318327
3.674761,-10.493468,0.19407077,53.0,8,-0.053180963
1.0081372,-2.8803992,-0.7045467,54.0,1,-0.05317866
5.69118,-16.269667,0.90331864,28.0,9,-0.053176355
1.1292287,-3.2281835,-0.6647786,54.0,2,-0.053174052
1.2777658,-3.6569078,-0.61353606,38.0,3,-0.053169444
1.4639636,-4.1945004,-0.5454872,55.0,4,-0.053164836
1.7133793,-4.911871,-0.45512727,37.0,5,-0.053160228
2.1193445,-6.08251,-0.33756694,22.0,6,-0.05315562
20.806679,-59.748615,14.606523,12.0,14,-0.053153314
2.8224618,-8.109563,-0.14988126,34.0,7,-0.05315101
0.89429134,-2.5811026,-0.73194027,45.0,0,-0.05312797
3.6839125,-10.638505,0.1965141,42.0,8,-0.05312567
0.9987138,-2.8857422,-0.7049966,51.0,1,-0.053123362
5.957531,-17.223764,0.95513123,30.0,9,-0.05312106
1.1218042,-3.2432377,-0.66706824,51.0,2,-0.053118754
18.073244,-52.28093,4.839584,19.0,10,-0.053116452
1.2604774,-3.6482763,-0.61134595,41.0,3,-0.053114146
1.4454279,-4.188326,-0.5440248,48.0,4,-0.053109538
1.6901703,-4.903049,-0.4537328,37.0,5,-0.05310493
20.105103,-58.323296,11.991583,42.0,13,-0.053102627
2.068174,-6.0030074,-0.33275205,20.0,6,-0.05310032
19.260565,-55.93674,13.658129,31.0,14,-0.05309802
2.811055,-8.168527,-0.1507888,43.0,7,-0.053095713
0.88294786,-2.57888,-0.73038733,43.0,0,-0.053072676
3.6959827,-10.795083,0.19916686,42.0,8,-0.05307037
0.9867419,-2.8836796,-0.7036469,56.0,1,-0.053068068
5.9122396,-17.287922,0.9575388,19.0,9,-0.053065762
1.1010202,-3.2213197,-0.66172564,49.0,2,-0.05306346
1.226674,-3.5930498,-0.60133415,30.0,3,-0.05305885
1.4333631,-4.2008605,-0.5449997,48.0,4,-0.053054243
1.7083951,-5.0126424,-0.46331993,39.0,5,-0.053049635
19.931713,-58.515533,12.016006,42.0,13,-0.05304733
2.0538816,-6.033236,-0.33400813,22.0,6,-0.053045027
19.106258,-56.1564,13.694571,31.0,14,-0.053042725
2.8031354,-8.238871,-0.15190575,43.0,7,-0.05304042
19.556623,-57.51301,16.27713,41.0,15,-0.053038117
0.88199264,-2.6057343,-0.73711663,38.0,0,-0.053017378
3.6153817,-10.687325,0.19693296,48.0,8,-0.053015076
0.97491765,-2.8835843,-0.7027471,49.0,1,-0.05301277
5.533631,-16.37664,0.9059355,1.0,9,-0.053010467
1.0922827,-3.2325828,-0.6632521,51.0,2,-0.05300816
18.262197,-54.077602,4.993675,20.0,10,-0.05300586
1.2507629,-3.7058654,-0.61948055,37.0,3,-0.053003553
1.4255669,-4.228659,-0.54792464,53.0,4,-0.052998945
1.6947045,-5.029903,-0.46436578,37.0,5,-0.05299434
2.0977867,-6.233449,-0.34468466,34.0,6,-0.052989732
19.700972,-58.57406,14.267296,12.0,14,-0.052987427
2.7703717,-8.241507,-0.15176612,43.0,7,-0.052985124
18.979021,-56.49286,15.968617,39.0,15,-0.05298282
0.8722786,-2.6069655,-0.736599,44.0,0,-0.052962083
3.5425382,-10.5936775,0.1949783,39.0,8,-0.052959777
0.97164106,-2.9073007,-0.707696,48.0,1,-0.052957475
5.9617515,-17.848846,0.9862189,12.0,9,-0.05295517
1.0797485,-3.2326515,-0.6624889,48.0,2,-0.052952867
18.28024,-54.760906,5.0508494,21.0,10,-0.052950565
1.2409455,-3.719578,-0.62104493,45.0,3,-0.05294826
1.4183277,-4.2562084,-0.55084944,46.0,4,-0.05294365
19.63483,-58.95576,9.841919,25.0,12,-0.05294135
1.6727295,-5.0225563,-0.46314558,37.0,5,-0.052939042
2.0886245,-6.2786365,-0.3467781,48.0,6,-0.052934434
18.788143,-56.51217,13.749008,42.0,14,-0.052932132
2.7554584,-8.292876,-0.15253404,46.0,7,-0.052929826
18.781715,-56.55876,15.968617,39.0,15,-0.052927524
0.8631732,-2.6099944,-0.736599,48.0,0,-0.052906785
3.5488403,-10.736986,0.19738671,32.0,8,-0.052904483
0.9627091,-2.9143753,-0.7085958,52.0,1,-0.05290218
5.9407425,-17.984201,0.9926039,13.0,9,-0.052899875
1.0703043,-3.2419937,-0.6636337,49.0,2,-0.052897573
1.2230052,-3.7088788,-0.61854196,41.0,3,-0.052892964
1.3997366,-4.249821,-0.54938704,53.0,4,-0.052888356
1.6707611,-5.075677,-0.4675034,36.0,5,-0.052883748
2.0866578,-6.3466034,-0.3501276,44.0,6,-0.05287914
18.612663,-56.644054,13.765204,31.0,14,-0.052876834
2.741052,-8.341864,-0.15326704,40.0,7,-0.05287453
18.665176,-56.837315,16.0297,40.0,15,-0.052872226
0.85585773,-2.6185002,-0.73815197,46.0,0,-0.05285149
3.6461647,-11.155456,0.20485635,31.0,8,-0.05284919
0.94698864,-2.8990276,-0.7040968,44.0,1,-0.052846882
5.99012,-18.348482,1.0115495,12.0,9,-0.05284458
1.0638525,-3.2606416,-0.66668665,47.0,2,-0.052842274
1.2131491,-3.720426,-0.6197934,41.0,3,-0.052837666
1.4028485,-4.307289,-0.5562117,55.0,4,-0.052833058
19.35658,-59.46748,9.905119,26.0,12,-0.052830756
1.6561157,-5.0909514,-0.46837494,36.0,5,-0.05282845
2.061895,-6.342092,-0.34949955,46.0,6,-0.05282384
2.7255037,-8.393223,-0.15403494,43.0,7,-0.052819233
20.124477,-62.010395,17.468733,47.0,15,-0.05281693
0.85014045,-2.630515,-0.7407402,48.0,0,-0.052796196
3.5525024,-10.998755,0.20174982,48.0,8,-0.05279389
0.9338697,-2.8930433,-0.70184726,43.0,1,-0.052791588
5.905188,-18.304651,1.0079906,4.0,9,-0.052789282
1.0427873,-3.232388,-0.66019917,41.0,2,-0.05278698
19.19371,-59.531406,5.4723344,28.0,10,-0.052784674
1.201972,-3.730279,-0.620732,38.0,3,-0.05278237
19.985611,-62.06176,8.005598,29.0,11,-0.052780066
1.3878046,-4.31216,-0.5562117,48.0,4,-0.052777763
1.6261401,-5.058765,-0.46488872,36.0,5,-0.052773155
2.035468,-6.33594,-0.34876686,51.0,6,-0.052768547
2.6937463,-8.395069,-0.15389533,37.0,7,-0.05276394
18.13932,-56.56521,15.916854,39.0,15,-0.052761637
0.8487162,-2.6593788,-0.7479871,49.0,0,-0.052740898
3.4915926,-10.940604,0.20045835,30.0,8,-0.052738596
0.92435795,-2.8981419,-0.7022972,41.0,1,-0.05273629
5.8176007,-18.25094,1.0039084,13.0,9,-0.052733988
1.0440426,-3.277342,-0.6685948,50.0,2,-0.05273168
18.924616,-59.441883,5.4576926,28.0,10,-0.05272938
1.1918854,-3.7459538,-0.62260926,37.0,3,-0.052727073
1.3589082,-4.2734675,-0.5506057,49.0,4,-0.052722465
1.6265647,-5.1213784,-0.47011805,37.0,5,-0.052717857
2.0055888,-6.322416,-0.34761545,46.0,6,-0.052713253
18.047928,-56.928738,13.787701,21.0,14,-0.052710947
2.6674469,-8.413951,-0.15406984,31.0,7,-0.052708644
17.93243,-56.598717,15.908572,39.0,15,-0.05270634
0.8330379,-2.6420586,-0.742293,45.0,0,-0.052685603
3.6263556,-11.508338,0.21061565,54.0,8,-0.052683298
0.9225097,-2.9293916,-0.7090457,47.0,1,-0.052680995
6.1930003,-19.665619,1.0805283,17.0,9,-0.05267869
1.027292,-3.264112,-0.6651602,46.0,2,-0.052676387
1.1859109,-3.7727046,-0.6263637,41.0,3,-0.05267178
19.386316,-61.710785,7.942226,28.0,11,-0.052669477
1.3558819,-4.316062,-0.5554805,44.0,4,-0.05266717
1.5997307,-5.09851,-0.4675034,36.0,5,-0.052662563
1.9829097,-6.3274727,-0.34751078,46.0,6,-0.052657954
17.84156,-56.932484,13.774202,10.0,14,-0.052655652
2.6237166,-8.377413,-0.15323213,31.0,7,-0.052653346
0.8196737,-2.6300516,-0.73815197,40.0,0,-0.052630305
3.6131501,-11.600486,0.21208164,39.0,8,-0.052628003
0.91510695,-2.9398775,-0.7108453,44.0,1,-0.0526257
5.612506,-18.030766,0.9896731,1.0,9,-0.052623395
1.0199612,-3.278749,-0.6674499,46.0,2,-0.052621093
1.175738,-3.7841623,-0.62761515,42.0,3,-0.052616484
1.3474483,-4.3394923,-0.5579179,44.0,4,-0.052611876
18.636692,-60.05698,9.9595585,26.0,12,-0.05260957
1.6117331,-5.1970325,-0.47604465,37.0,5,-0.052607268
1.9760984,-6.3798013,-0.3500229,44.0,6,-0.05260266
17.657854,-57.00809,13.778253,31.0,14,-0.052600354
2.6219406,-8.4701185,-0.15476793,31.0,7,-0.05259805
18.147392,-58.66099,16.453127,42.0,15,-0.052595746
0.81720304,-2.653064,-0.74384594,43.0,0,-0.05257501
3.5852518,-11.646806,0.21270993,45.0,8,-0.05257271
0.9082179,-2.9522088,-0.71309483,50.0,1,-0.052570403
6.233921,-20.26368,1.1110924,15.0,9,-0.0525681
1.0073522,-3.2764833,-0.66630507,39.0,2,-0.052565794
1.1597035,-3.7767103,-0.6257379,41.0,3,-0.052561186
1.343534,-4.3780966,-0.5623052,39.0,4,-0.052556578
1.6155086,-5.270926,-0.4823199,39.0,5,-0.05255197
1.9730548,-6.445523,-0.35326776,48.0,6,-0.05254736
16.98558,-55.488045,13.397185,9.0,14,-0.05254506
2.592668,-8.474943,-0.15469813,25.0,7,-0.052542754
17.915483,-58.59892,16.418962,42.0,15,-0.05254045
0.8095257,-2.6594555,-0.7448812,43.0,0,-0.052519716
3.5070326,-11.528539,0.21033642,31.0,8,-0.05251741
0.89275503,-2.9365594,-0.7085958,50.0,1,-0.05251511
6.1945763,-20.375961,1.1161166,17.0,9,-0.052512802
1.005613,-3.3098614,-0.67241096,41.0,2,-0.0525105
1.1511886,-3.7937675,-0.6279281,46.0,3,-0.05250589
1.3341928,-4.399625,-0.5644989,41.0,4,-0.052501284
18.12339,-59.801167,9.896984,26.0,12,-0.052498978
1.6188116,-5.344901,-0.4885951,45.0,5,-0.052496675
1.9516697,-6.45203,-0.35326776,48.0,6,-0.052492067
17.61058,-58.21887,14.042345,11.0,14,-0.05248976
2.5963745,-8.588771,-0.1566179,35.0,7,-0.05248746
17.737837,-58.713486,16.434492,42.0,15,-0.052485153
0.8097769,-2.6957078,-0.75419873,47.0,0,-0.051273823
3.2991655,-10.989721,0.20028383,19.0,8,-0.05127152
0.87750596,-2.9248796,-0.7049966,41.0,1,-0.051269215
6.1472673,-20.502907,1.1217691,20.0,9,-0.051266912
0.98727274,-3.2928388,-0.6682131,49.0,2,-0.051264606
1.1395421,-3.8055308,-0.62917954,46.0,3,-0.05126
1.3241148,-4.4275374,-0.5674237,41.0,4,-0.05125539
17.07795,-57.141113,9.4458275,19.0,12,-0.051253088
1.6003516,-5.354616,-0.4889437,40.0,5,-0.051250782
1.9422907,-6.5069847,-0.35588452,44.0,6,-0.051246174
17.354595,-58.177742,14.016251,11.0,14,-0.05124387
2.5628057,-8.596761,-0.15658298,29.0,7,-0.051241565
17.818935,-59.81055,16.722298,43.0,15,-0.051239263
0.79926383,-2.694814,-0.75316346,42.0,0,-0.05121853
3.4557035,-11.658788,0.21225616,40.0,8,-0.051216222
0.8822345,-2.978374,-0.71714395,53.0,1,-0.05121392
6.3063955,-21.303688,1.1643704,8.0,9,-0.051211614
0.9830169,-3.3207376,-0.67317414,39.0,2,-0.051209312
20.949791,-70.81607,6.4610295,51.0,10,-0.051207006
1.1268117,-3.8113794,-0.62949234,42.0,3,-0.051204704
18.503506,-62.6273,8.018272,29.0,11,-0.051202398
1.3114625,-4.4416523,-0.56864244,49.0,4,-0.051200096
16.871681,-57.17764,9.442073,19.0,12,-0.05119779
1.569246,-5.3181295,-0.48510888,39.0,5,-0.051195487
1.9331142,-6.559705,-0.35839668,44.0,6,-0.05119088
17.591846,-59.73345,14.376172,12.0,14,-0.051188573
2.5429447,-8.640185,-0.15721127,29.0,7,-0.05118627
0.78659487,-2.6864636,-0.75005764,43.0,0,-0.05116323
3.390277,-11.586332,0.21072036,33.0,8,-0.051160928
0.8729269,-2.985176,-0.71804374,50.0,1,-0.051158622
6.3759723,-21.81826,1.1912712,12.0,9,-0.05115632
0.9681152,-3.3128424,-0.6708845,38.0,2,-0.051154014
20.72369,-70.96144,6.467653,51.0,10,-0.05115171
1.1002187,-3.7697787,-0.62198347,32.0,3,-0.051149406
20.900463,-71.65968,9.165306,52.0,11,-0.051147103
1.3159474,-4.514811,-0.577417,49.0,4,-0.051144797
1.5573581,-5.346529,-0.4872006,40.0,5,-0.05114019
16.640413,-57.16493,11.572948,39.0,13,-0.051137887
1.918016,-6.5932612,-0.3598621,42.0,6,-0.05113558
2.538433,-8.737342,-0.1588169,26.0,7,-0.051130977
0.7766764,-2.687337,-0.74954,40.0,0,-0.051107936
3.4041905,-11.786371,0.21414103,42.0,8,-0.05110563
0.86142015,-2.9844608,-0.71714395,49.0,1,-0.051103327
6.1519814,-21.328005,1.1633238,4.0,9,-0.05110102
0.95382506,-3.3067696,-0.66897637,42.0,2,-0.05109872
1.0979886,-3.8115604,-0.6282409,38.0,3,-0.05109411
1.3073151,-4.5441775,-0.5805856,51.0,4,-0.051089503
1.5480452,-5.384485,-0.49016386,42.0,5,-0.051084895
1.9098712,-6.6517477,-0.3626882,42.0,6,-0.051080287
2.4676814,-8.605826,-0.15626885,19.0,7,-0.05107568
17.222496,-60.101585,16.752323,43.0,15,-0.051073376
0.7747095,-2.7160401,-0.7567869,45.0,0,-0.051052637
3.5219967,-12.35588,0.22426341,42.0,8,-0.051050335
0.83978605,-2.9480915,-0.707696,44.0,1,-0.05104803
6.2371635,-21.895731,1.1931552,10.0,9,-0.051045727
0.9530269,-3.3478436,-0.67660874,42.0,2,-0.05104342
20.282307,-71.29603,6.4850845,52.0,10,-0.05104112
1.0857577,-3.8191698,-0.6288666,33.0,3,-0.051038817
1.2843962,-4.523888,-0.577417,42.0,4,-0.05103421
1.5357668,-5.4128566,-0.49225563,42.0,5,-0.0510296
1.9078753,-6.733317,-0.36677042,42.0,6,-0.051024992
18.52949,-65.4382,15.701584,15.0,14,-0.051022686
2.472909,-8.733253,-0.15843295,19.0,7,-0.051020384
17.035727,-60.202976,16.764746,43.0,15,-0.051018078
0.76627094,-2.7224474,-0.7578222,45.0,0,-0.050997343
3.5178452,-12.498384,0.22663696,42.0,8,-0.050995037
0.836337,-2.9733713,-0.71309483,41.0,1,-0.050992735
6.192044,-22.028889,1.1992263,8.0,9,-0.050990433
0.9402729,-3.3473697,-0.6758455,41.0,2,-0.050988127
19.585304,-69.77041,6.3400574,48.0,10,-0.050985824
1.0720191,-3.818946,-0.6282409,33.0,3,-0.05098352
1.2742101,-4.545325,-0.57961065,51.0,4,-0.05097891
1.5378103,-5.4930105,-0.49905378,40.0,5,-0.050974302
1.8946848,-6.7723045,-0.36854982,45.0,6,-0.050969694
16.218792,-58.01098,13.906474,11.0,14,-0.05096739
2.488146,-8.905537,-0.16139986,29.0,7,-0.050965086
16.565716,-59.331734,16.505926,42.0,15,-0.050962783
0.7572386,-2.7249737,-0.7578222,46.0,0,-0.05094205
3.4458387,-12.408468,0.22478701,40.0,8,-0.050939742
0.8285587,-2.9856613,-0.7153443,43.0,1,-0.05093744
6.0756106,-21.907946,1.1914805,6.0,9,-0.050935134
0.9291673,-3.3504694,-0.6758455,41.0,2,-0.050932832
1.0607913,-3.8302794,-0.62949234,33.0,3,-0.050928224
1.26839,-4.586097,-0.5842417,54.0,4,-0.050923616
16.21173,-58.656322,9.638555,22.0,12,-0.05092131
1.5164024,-5.4865575,-0.4980079,40.0,5,-0.050919008
1.8912263,-6.8520374,-0.3725274,42.0,6,-0.0509144
16.008934,-58.040943,13.900176,11.0,14,-0.050912093
2.4602337,-8.9257345,-0.16160928,22.0,7,-0.05090979
16.185116,-58.759674,16.330965,41.0,15,-0.050907485
0.74619013,-2.7220106,-0.7562693,47.0,0,-0.05088675
3.4680178,-12.659573,0.22911519,53.0,8,-0.050884448
0.8263644,-3.0186088,-0.72254276,40.0,1,-0.050882142
6.171439,-22.558977,1.2257082,4.0,9,-0.05087984
0.9205749,-3.3650544,-0.6781352,39.0,2,-0.050877534
19.12781,-69.967445,6.345984,48.0,10,-0.05087523
1.0505376,-3.8453925,-0.6313696,33.0,3,-0.050872926
19.544205,-71.588806,9.111685,51.0,11,-0.050870623
1.2518513,-4.5885816,-0.58399796,49.0,4,-0.050868317
15.916471,-58.38094,9.584115,21.0,12,-0.050866015
1.5092946,-5.5360284,-0.5020171,37.0,5,-0.05086371
1.8772652,-6.895212,-0.37451613,45.0,6,-0.0508591
15.597509,-57.329266,13.716616,10.0,14,-0.0508568
2.4500475,-9.011455,-0.16300547,23.0,7,-0.050854497
0.7397096,-2.735788,-0.75937515,44.0,0,-0.050831456
3.4352815,-12.714071,0.2298831,58.0,8,-0.05082915
0.8076946,-2.991373,-0.7153443,34.0,1,-0.050826848
6.0874496,-22.561098,1.2246615,6.0,9,-0.05082454
0.9088226,-3.3682473,-0.6781352,38.0,2,-0.05082224
1.0566379,-3.921515,-0.6432586,36.0,3,-0.05081763
19.381924,-71.982445,9.15312,51.0,11,-0.050815325
1.2373743,-4.598674,-0.5847292,46.0,4,-0.050813023
1.492031,-5.5489593,-0.5027143,37.0,5,-0.050808415
1.8697588,-6.963449,-0.37786564,49.0,6,-0.050803807
15.41599,-57.453003,13.733262,31.0,14,-0.050801504
2.3331232,-8.70126,-0.15724619,19.0,7,-0.0507992
0.73065263,-2.74022,-0.75989276,46.0,0,-0.050776158
3.398088,-12.7530365,0.23037177,47.0,8,-0.050773855
0.80426794,-3.020538,-0.721643,40.0,1,-0.05077155
6.026636,-22.649763,1.228325,2.0,9,-0.050769247
0.90059364,-3.3846798,-0.6808065,32.0,2,-0.05076694
1.0459862,-3.9366343,-0.6451358,33.0,3,-0.050762333
19.174356,-72.21466,9.174081,52.0,11,-0.05076003
1.219278,-4.5952907,-0.58375424,46.0,4,-0.05075773
1.4792897,-5.5791698,-0.5049803,43.0,5,-0.05075312
15.217652,-57.4341,11.549288,39.0,13,-0.050750814
1.8566875,-7.0124087,-0.38016844,49.0,6,-0.050748512
15.248237,-57.630806,13.762956,21.0,14,-0.050746206
2.3211386,-8.778949,-0.15850276,19.0,7,-0.050743904
0.7205922,-2.7408855,-0.75937515,44.0,0,-0.050720863
3.4145255,-12.996908,0.23456034,39.0,8,-0.050718557
0.802626,-3.0572548,-0.7297412,43.0,1,-0.050716255
7.363419,-28.047745,1.5197316,3.0,9,-0.05071395
0.8907666,-3.395399,-0.682333,32.0,2,-0.050711647
1.0397474,-3.968925,-0.64982885,38.0,3,-0.05070704
1.2087561,-4.6206436,-0.5864353,43.0,4,-0.05070243
15.482443,-59.183857,9.6892395,23.0,12,-0.050700128
1.4582945,-5.5785165,-0.5044574,40.0,5,-0.050697822
1.8543944,-7.103877,-0.38477397,52.0,6,-0.050693214
15.238319,-58.41719,13.937967,22.0,14,-0.05069091
2.375295,-9.105864,-0.16426206,23.0,7,-0.050688606
0.70714253,-2.7284238,-0.755234,44.0,0,-0.05066557
3.4115412,-13.163019,0.23735273,48.0,8,-0.050663263
0.794438,-3.0674455,-0.7315408,43.0,1,-0.05066096
7.730855,-29.87148,1.6170765,3.0,9,-0.050658654
0.89906245,-3.4764173,-0.69797933,38.0,2,-0.050656352
1.0335002,-3.9991267,-0.654209,46.0,3,-0.050651744
1.204835,-4.668835,-0.5920413,40.0,4,-0.050647136
1.440305,-5.5893607,-0.5049803,39.0,5,-0.050642528
15.064456,-58.46031,11.734754,40.0,13,-0.05064022
1.8462662,-7.169947,-0.38801882,57.0,6,-0.05063792
15.039174,-58.446648,13.933019,22.0,14,-0.050635614
2.3544493,-9.156707,-0.16502996,33.0,7,-0.05063331
0.6961774,-2.7232668,-0.75316346,43.0,0,-0.05061027
3.4071488,-13.337595,0.24028473,48.0,8,-0.050607968
0.7726397,-3.0267715,-0.7211931,45.0,1,-0.050605662
8.281854,-32.443684,1.7548249,12.0,9,-0.05060336
0.87588346,-3.4337232,-0.6888205,27.0,2,-0.050601054
1.0195342,-4.00271,-0.654209,43.0,3,-0.050596446
1.1934241,-4.692251,-0.5944787,40.0,4,-0.050591838
1.4163636,-5.5728655,-0.50306296,39.0,5,-0.05058723
14.878655,-58.58485,11.749255,40.0,13,-0.050584927
1.8285971,-7.205386,-0.3895889,60.0,6,-0.05058262
15.127273,-59.651047,14.207459,23.0,14,-0.05058032
2.3319373,-9.195478,-0.16558844,30.0,7,-0.050578013
0.69138616,-2.7444136,-0.7583398,47.0,0,-0.050554976
3.3799982,-13.416689,0.2415064,50.0,8,-0.05055267
0.77639484,-3.0841208,-0.73424023,44.0,1,-0.050550368
8.193401,-32.571175,1.760163,20.0,9,-0.05054806
0.8696354,-3.4596078,-0.6933999,37.0,2,-0.05054576
1.0048113,-4.000321,-0.65327036,42.0,3,-0.05054115
18.449505,-73.504845,9.305213,54.0,11,-0.050538845
1.1768913,-4.692332,-0.5939912,40.0,4,-0.050536543
15.687618,-62.593708,10.22049,30.0,12,-0.050534237
1.4167469,-5.6570163,-0.5102097,40.0,5,-0.050531935
14.7692,-58.972855,11.8171835,41.0,13,-0.05052963
1.8017837,-7.1997857,-0.38896087,62.0,6,-0.050527327
15.0622225,-60.232117,14.33388,12.0,14,-0.050525025
2.2886744,-9.15894,-0.16478562,33.0,7,-0.05052272
0.68600756,-2.7616904,-0.7624809,44.0,0,-0.050499678
3.4102242,-13.738934,0.24709117,42.0,8,-0.050497375
0.76140183,-3.0697892,-0.7301911,45.0,1,-0.05049507
8.182958,-33.016376,1.7826674,20.0,9,-0.050492767
0.87185454,-3.5177352,-0.7044668,43.0,2,-0.05049046
0.9936885,-4.0153093,-0.6551476,42.0,3,-0.050485853
1.1709818,-4.7388077,-0.5993535,45.0,4,-0.050481245
15.4652405,-62.632744,10.217987,30.0,12,-0.050478943
1.3989006,-5.6696653,-0.510907,42.0,5,-0.05047664
1.7857237,-7.2428756,-0.39094964,57.0,6,-0.050472032
14.904563,-60.498142,14.38472,36.0,14,-0.050469726
2.2523887,-9.149398,-0.16447149,30.0,7,-0.050467424
0.6804693,-2.7829516,-0.7676573,43.0,0,-0.050444383
3.3907428,-13.867303,0.24918546,33.0,8,-0.050442077
0.75391966,-3.0856798,-0.73334044,47.0,1,-0.050439775
8.150087,-33.382347,1.8008803,24.0,9,-0.05043747
0.8598861,-3.5247219,-0.70523006,34.0,2,-0.050435167
0.98364055,-4.038117,-0.6582763,36.0,3,-0.05043056
1.1502072,-4.725508,-0.5971598,42.0,4,-0.05042595
1.3663976,-5.6222405,-0.50620055,45.0,5,-0.050421342
1.7808318,-7.3386545,-0.39576453,57.0,6,-0.050416734
14.286876,-58.919857,13.996904,33.0,14,-0.05041443
2.2581358,-9.312675,-0.16726387,23.0,7,-0.050412126
0.67075074,-2.78531,-0.7676573,43.0,0,-0.050389085
3.2074955,-13.329429,0.2393074,21.0,8,-0.050386783
0.74169374,-3.0846324,-0.7324406,47.0,1,-0.05038448
8.09207,-33.67999,1.8153251,17.0,9,-0.050382175
0.8429912,-3.5086124,-0.70141387,34.0,2,-0.050379872
0.96769565,-4.0338426,-0.65702486,36.0,3,-0.050375264
1.1319547,-4.725831,-0.59667236,43.0,4,-0.050370656
14.905382,-62.276897,10.142273,29.0,12,-0.05036835
1.3578935,-5.6734805,-0.510384,39.0,5,-0.050366048
1.7603105,-7.366195,-0.39691594,55.0,6,-0.05036144
14.029068,-58.751392,13.945166,33.0,14,-0.050359134
2.2546184,-9.449265,-0.16956758,30.0,7,-0.05035683
0.65656704,-2.768837,-0.7624809,41.0,0,-0.05033379
3.226416,-13.61685,0.24426387,50.0,8,-0.05033149
0.7327177,-3.094788,-0.73424023,43.0,1,-0.050329182
8.071018,-34.11619,1.8373064,25.0,9,-0.05032688
