x,y,z,intensity,ring,time
5.130852,-9.996427,0.19613016,47.0,8,-0.062737614
1.4517535,-2.8296645,-0.73424023,47.0,1,-0.06273531
8.846887,-17.251192,1.0160503,30.0,9,-0.06273301
1.6152633,-3.1497202,-0.6880573,39.0,2,-0.0627307
1.8376188,-3.5863903,-0.63825274,50.0,3,-0.062726095
2.1194947,-4.1400733,-0.5710798,58.0,4,-0.06272148
2.4714575,-4.829651,-0.47465014,36.0,5,-0.06271688
3.0095203,-5.8861833,-0.34646407,44.0,6,-0.06271227
3.9144735,-7.6627398,-0.1501954,37.0,7,-0.06270766
1.3330675,-2.6185513,-0.7873275,44.0,0,-0.062684625
5.2310557,-10.279826,0.20133096,33.0,8,-0.062682316
1.4365666,-2.8242927,-0.7315408,43.0,1,-0.06268001
8.774846,-17.258823,1.0146896,18.0,9,-0.06267771
1.6051486,-3.1570897,-0.6884389,36.0,2,-0.06267541
1.8340353,-3.6103947,-0.64138144,51.0,3,-0.0626708
2.0942488,-4.126205,-0.56815493,46.0,4,-0.06266619
2.4509778,-4.831141,-0.47395292,37.0,5,-0.06266158
2.956447,-5.8325195,-0.34269586,28.0,6,-0.06265698
36.89008,-72.80877,18.8437,29.0,14,-0.062654674
3.882282,-7.6656537,-0.14998598,37.0,7,-0.062652364
1.3265301,-2.6283624,-0.78888047,40.0,0,-0.06262933
5.0375214,-9.985584,0.19522263,27.0,8,-0.062627025
1.4214345,-2.81885,-0.7288414,43.0,1,-0.062624715
8.8161335,-17.490885,1.0265175,13.0,9,-0.06262241
1.5888169,-3.1521544,-0.6861492,36.0,2,-0.06262011
1.8116478,-3.5973673,-0.6379398,38.0,3,-0.0626155
2.0914326,-4.1565423,-0.5713235,48.0,4,-0.062610894
2.4806502,-4.9322243,-0.48301712,40.0,5,-0.06260629
2.945934,-5.862435,-0.34384724,28.0,6,-0.06260168
36.74766,-73.159996,18.901287,30.0,14,-0.062599376
3.8662665,-7.7006035,-0.15040484,40.0,7,-0.06259707
1.3069745,-2.6122448,-0.7826688,45.0,0,-0.06257403
5.2682843,-10.534293,0.20558935,40.0,8,-0.06257173
1.4115863,-2.8237946,-0.7288414,43.0,1,-0.062569425
8.971959,-17.955706,1.0519528,14.0,9,-0.06256712
1.5795591,-3.1611934,-0.6869124,32.0,2,-0.06256481
1.8034916,-3.612506,-0.6395042,50.0,3,-0.06256021
2.0804548,-4.170923,-0.57229847,42.0,4,-0.062555596
2.4865322,-4.9872127,-0.48754922,45.0,5,-0.06255099
2.9646366,-5.9513426,-0.34845284,25.0,6,-0.06254638
36.530277,-73.36458,18.921083,30.0,14,-0.06254408
3.8357987,-7.706892,-0.15026523,34.0,7,-0.062541775
1.3021399,-2.6254447,-0.78525704,47.0,0,-0.06251874
4.9028487,-9.889721,0.19267458,8.0,8,-0.06251643
1.3947985,-2.814736,-0.7252422,43.0,1,-0.06251413
9.170741,-18.514889,1.082831,15.0,9,-0.062511824
1.5824571,-3.1948366,-0.6930183,36.0,2,-0.06250952
1.7908704,-3.6187792,-0.6395042,48.0,3,-0.06250491
2.0676425,-4.181719,-0.572786,43.0,4,-0.062500305
2.480585,-5.019082,-0.48981526,53.0,5,-0.062495694
2.9951344,-6.065522,-0.3545238,36.0,6,-0.062491085
3.8221452,-7.7471333,-0.1507888,28.0,7,-0.062486477
1.2921153,-2.62824,-0.7847394,45.0,0,-0.06246344
5.261641,-10.707212,0.2082421,37.0,8,-0.062461134
1.381528,-2.8125908,-0.72344255,44.0,1,-0.06245883
8.762763,-17.847588,1.042009,1.0,9,-0.062456526
1.577352,-3.212677,-0.6956896,38.0,2,-0.062454224
1.7790976,-3.6267822,-0.63981706,42.0,3,-0.062449615
2.0521593,-4.187128,-0.57254225,40.0,4,-0.062445007
2.4770746,-5.056338,-0.49260426,47.0,5,-0.0624404
2.9660408,-6.0597954,-0.35358176,38.0,6,-0.06243579
36.404312,-74.40903,19.12444,32.0,14,-0.062433485
3.8627234,-7.898751,-0.15347646,31.0,7,-0.062431183
1.2846256,-2.6362078,-0.7857747,46.0,0,-0.062402725
5.3205566,-10.923268,0.21208164,42.0,8,-0.062400423
1.3708488,-2.8156443,-0.7229927,50.0,1,-0.062398117
9.239653,-18.986126,1.1065916,21.0,9,-0.062395815
1.5747193,-3.2358162,-0.6995058,39.0,2,-0.06239351
1.7474235,-3.5938869,-0.6329339,37.0,3,-0.0623889
2.0418684,-4.2031937,-0.5737609,46.0,4,-0.062384292
37.638298,-77.513016,13.647657,63.0,12,-0.06238199
2.4550579,-5.055992,-0.4917327,39.0,5,-0.062379684
2.9657934,-6.1132383,-0.35609388,38.0,6,-0.062375076
36.154552,-74.55668,19.129837,32.0,14,-0.062372774
3.889205,-8.023751,-0.15564056,32.0,7,-0.062370468
1.2737352,-2.6371968,-0.7847394,45.0,0,-0.06234743
5.317172,-11.013807,0.21347784,46.0,8,-0.062345125
1.3686346,-2.8362076,-0.7270418,43.0,1,-0.062342823
9.456193,-19.604715,1.1407146,26.0,9,-0.062340517
1.5591499,-3.232452,-0.69759774,36.0,2,-0.062338214
32.148277,-66.68002,6.476369,51.0,10,-0.06233591
1.75545,-3.642673,-0.6404428,41.0,3,-0.062333606
2.0177107,-4.190622,-0.5710798,40.0,4,-0.062328998
2.442579,-5.075303,-0.49277857,45.0,5,-0.06232439
2.9530904,-6.1415544,-0.3571406,34.0,6,-0.06231978
35.796158,-74.4787,19.07765,31.0,14,-0.062317476
3.8776255,-8.071527,-0.15630375,29.0,7,-0.062315173
1.2628536,-2.638142,-0.7837041,50.0,0,-0.062292133
5.2821445,-11.039516,0.21361746,42.0,8,-0.06228983
1.3662934,-2.85679,-0.73109096,45.0,1,-0.062287524
9.107741,-19.051971,1.1066962,1.0,9,-0.062285222
1.5470102,-3.2361035,-0.69721615,41.0,2,-0.062282916
1.728251,-3.6184762,-0.635124,45.0,3,-0.062278308
2.0150394,-4.2227206,-0.57449216,46.0,4,-0.0622737
2.4257054,-5.0855966,-0.49295285,42.0,5,-0.06226909
2.9625666,-6.2167325,-0.3609088,42.0,6,-0.062264483
3.8502865,-8.086818,-0.15633865,35.0,7,-0.06225988
1.2536373,-2.642534,-0.7837041,46.0,0,-0.062236838
5.2624273,-11.097637,0.21438536,37.0,8,-0.062234532
1.3588165,-2.8668249,-0.7324406,47.0,1,-0.06223223
9.5448475,-20.146759,1.1683481,16.0,9,-0.062229924
1.5432695,-3.2574518,-0.7006507,43.0,2,-0.06222762
1.7443439,-3.6851926,-0.64576155,46.0,3,-0.062223013
2.0079255,-4.24588,-0.5766858,48.0,4,-0.062218405
2.4113443,-5.101238,-0.4936501,40.0,5,-0.062213797
2.8888195,-6.1168714,-0.3545238,36.0,6,-0.06220919
3.841662,-8.141804,-0.15714148,32.0,7,-0.06220458
1.2485152,-2.6556354,-0.78629225,44.0,0,-0.06218154
5.209198,-11.085175,0.21379198,43.0,8,-0.062179238
1.3438306,-2.8609674,-0.7297412,44.0,1,-0.06217693
9.607904,-20.454887,1.1843628,22.0,9,-0.06217463
1.5427365,-3.2859213,-0.7056117,39.0,2,-0.062172323
1.7365031,-3.7019892,-0.6476388,46.0,3,-0.06216772
1.9973038,-4.2618504,-0.57790446,46.0,4,-0.06216311
2.3909874,-5.1042113,-0.4931272,40.0,5,-0.062158503
2.9131672,-6.2246013,-0.3601761,33.0,6,-0.062153894
3.82142,-8.168989,-0.15742071,29.0,7,-0.062149286
1.2473958,-2.6774886,-0.7914687,48.0,0,-0.062126245
5.168188,-11.093324,0.21361746,37.0,8,-0.06212394
1.3351582,-2.8671746,-0.7301911,41.0,1,-0.062121637
9.651067,-20.734558,1.1985981,12.0,9,-0.062119335
1.5296009,-3.2877269,-0.70484847,38.0,2,-0.06211703
1.7192196,-3.6969805,-0.64576155,41.0,3,-0.06211242
1.963922,-4.227044,-0.57229847,49.0,4,-0.062107813
2.3848999,-5.137827,-0.49556756,39.0,5,-0.062103204
2.9059591,-6.263215,-0.36185086,36.0,6,-0.062098596
3.8761396,-8.36189,-0.16087629,35.0,7,-0.062093988
1.2304099,-2.6640723,-0.78629225,48.0,0,-0.06207095
5.181398,-11.223861,0.21578155,30.0,8,-0.062068645
1.3259586,-2.8735871,-0.730641,40.0,1,-0.062066343
9.791458,-21.219824,1.2247661,13.0,9,-0.062064037
1.5236232,-3.3034775,-0.7071382,38.0,2,-0.062061734
1.7153972,-3.7226942,-0.6492031,50.0,3,-0.062057126
1.9640979,-4.266331,-0.5766858,48.0,4,-0.062052518
2.3786762,-5.169237,-0.4978336,42.0,5,-0.06204791
2.8874164,-6.280579,-0.36226952,49.0,6,-0.0620433
3.8500586,-8.37833,-0.16094609,39.0,7,-0.062038694
1.2194954,-2.6648374,-0.78525704,44.0,0,-0.062015653
5.1025453,-11.150065,0.21403632,21.0,8,-0.06201335
1.3220962,-2.8903732,-0.73379034,41.0,1,-0.062011044
9.647566,-21.101297,1.2159737,4.0,9,-0.062008742
1.511267,-3.3069901,-0.7067566,46.0,2,-0.062006436
1.7046851,-3.7319553,-0.64982885,51.0,3,-0.062001828
1.9532359,-4.2800446,-0.57766074,48.0,4,-0.06199722
2.3821084,-5.2246428,-0.5023657,39.0,5,-0.06199261
2.8814814,-6.3228335,-0.36415362,47.0,6,-0.061988004
3.8497922,-8.455417,-0.16216777,39.0,7,-0.0619834
1.2098536,-2.6671073,-0.7847394,46.0,0,-0.06196036
5.2692084,-11.621296,0.22272763,36.0,8,-0.061958052
1.31039,-2.8914208,-0.73289055,39.0,1,-0.06195575
10.088104,-22.270086,1.281289,2.0,9,-0.061953444
1.5043427,-3.3209255,-0.70866466,41.0,2,-0.06195114
1.6900183,-3.734284,-0.6492031,52.0,3,-0.061946534
1.9546405,-4.3230124,-0.5825355,48.0,4,-0.061941925
2.3679578,-5.2420044,-0.50323725,40.0,5,-0.061937317
2.8939128,-6.409306,-0.36854982,49.0,6,-0.06193271
3.8482108,-8.530779,-0.16335453,43.0,7,-0.0619281
1.2071946,-2.6873841,-0.78939813,47.0,0,-0.06190506
5.0680075,-11.282093,0.21588628,18.0,8,-0.061902758
1.2986926,-2.892422,-0.73199075,37.0,1,-0.06190045
13.452292,-29.974674,1.7218531,7.0,9,-0.06189815
1.4953748,-3.333582,-0.71019113,42.0,2,-0.061895844
1.6730886,-3.7332425,-0.6479516,55.0,3,-0.061891235
1.946031,-4.3443017,-0.5844854,54.0,4,-0.06188663
2.348017,-5.246601,-0.5028886,40.0,5,-0.061882023
2.8655114,-6.40893,-0.3679218,42.0,6,-0.061877415
3.7898529,-8.480263,-0.16213286,35.0,7,-0.061872806
1.1985918,-2.6933465,-0.78991574,46.0,0,-0.061849765
5.0542555,-11.362714,0.21707304,30.0,8,-0.06184746
1.2896659,-2.9007237,-0.73289055,39.0,1,-0.061845157
13.545562,-30.466751,1.747393,8.0,9,-0.06184285
1.4821346,-3.3351932,-0.7094279,42.0,2,-0.06184055
1.656841,-3.7318382,-0.64670014,46.0,3,-0.06183594
1.9196312,-4.327816,-0.5813168,40.0,4,-0.061831333
2.3474545,-5.294836,-0.50672346,42.0,5,-0.061826725
2.8932705,-6.5321145,-0.37441146,49.0,6,-0.061822116
3.7723715,-8.520867,-0.16265643,29.0,7,-0.06181751
1.1860662,-2.690443,-0.7878452,45.0,0,-0.06179447
5.021387,-11.39039,0.21728246,33.0,8,-0.061792165
1.2933979,-2.9353006,-0.74053884,33.0,1,-0.061789863
13.784491,-31.29799,1.7922974,12.0,9,-0.061787557
1.4609915,-3.3187845,-0.70484847,41.0,2,-0.061785255
1.6571857,-3.766241,-0.6517061,50.0,3,-0.061780646
1.9148557,-4.3559647,-0.5842417,39.0,4,-0.06177604
2.3425772,-5.3340096,-0.50968677,45.0,5,-0.06177143
2.8980863,-6.6020236,-0.37786564,52.0,6,-0.061766822
3.7594695,-8.572441,-0.16338943,37.0,7,-0.061762214
1.1763642,-2.692591,-0.7873275,47.0,0,-0.061739173
5.11684,-11.717556,0.22318138,36.0,8,-0.06173687
1.2909398,-2.9576578,-0.7450379,34.0,1,-0.061734565
13.818108,-31.6736,1.8110335,20.0,9,-0.061732262
1.454688,-3.3344078,-0.7071382,42.0,2,-0.061729956
1.6408722,-3.764759,-0.6504546,45.0,3,-0.06172535
1.9020163,-4.368082,-0.5849729,37.0,4,-0.06172074
2.327262,-5.347229,-0.5102097,48.0,5,-0.061716132
2.8853762,-6.6359105,-0.3792264,54.0,6,-0.061711524
3.7558162,-8.646037,-0.16454129,43.0,7,-0.061706915
1.1623547,-2.6860435,-0.78422177,44.0,0,-0.06168388
5.162436,-11.9354,0.22698599,42.0,8,-0.061681572
1.2759681,-2.9514134,-0.7423385,40.0,1,-0.06167927
13.779561,-31.888483,1.8205588,12.0,9,-0.061676964
1.4368101,-3.3250475,-0.70408523,38.0,2,-0.061674662
1.6238055,-3.7613964,-0.64889026,42.0,3,-0.061670054
24.533842,-56.857635,7.603429,21.0,11,-0.061667748
1.8820407,-4.363758,-0.58351046,37.0,4,-0.061665446
2.2991168,-5.333365,-0.508118,42.0,5,-0.061660837
2.8590355,-6.6386046,-0.3788077,47.0,6,-0.06165623
3.7335165,-8.6774645,-0.16489035,40.0,7,-0.06165162
1.1605823,-2.7078404,-0.78939813,42.0,0,-0.06162858
5.267994,-12.297079,0.2335132,30.0,8,-0.061626278
1.2786976,-2.9863036,-0.7499868,39.0,1,-0.061623972
13.969141,-32.639637,1.8606482,21.0,9,-0.06162167
1.4251947,-3.3300428,-0.70408523,39.0,2,-0.061619364
1.6168791,-3.7815719,-0.6513932,36.0,3,-0.061614756
1.8504214,-4.331965,-0.57839197,39.0,4,-0.061610147
29.728262,-69.62956,11.991329,56.0,12,-0.061607845
2.2944126,-5.3765736,-0.5114299,39.0,5,-0.061605543
2.8632703,-6.7128434,-0.3824712,42.0,6,-0.061600935
30.910873,-72.50457,18.196741,23.0,14,-0.06159863
3.7337756,-8.76219,-0.16625161,37.0,7,-0.061596327
1.1491404,-2.7085195,-0.78836286,44.0,0,-0.061573286
5.238314,-12.346687,0.23410659,39.0,8,-0.06157098
1.2705483,-2.996131,-0.7513365,44.0,1,-0.061568677
13.997758,-33.02472,1.8798032,26.0,9,-0.06156637
1.4114481,-3.3316286,-0.703322,39.0,2,-0.06156407
1.5922289,-3.7620046,-0.647013,36.0,3,-0.06155946
1.8337418,-4.3347416,-0.57790446,39.0,4,-0.061554853
29.561945,-69.91485,12.022615,56.0,12,-0.06155255
2.257016,-5.340504,-0.5072464,39.0,5,-0.061550245
2.8502998,-6.7508926,-0.38404128,35.0,6,-0.061545637
30.617647,-72.55275,18.180546,23.0,14,-0.061543334
3.7327127,-8.845179,-0.167578,33.0,7,-0.06154103
1.1524004,-2.7427914,-0.7971627,56.0,0,-0.061517987
5.121019,-12.194338,0.23086044,29.0,8,-0.061515685
1.2588042,-2.9989707,-0.7508866,37.0,1,-0.061513383
13.958925,-33.255695,1.8901656,26.0,9,-0.061511077
1.4066461,-3.3528285,-0.7067566,34.0,2,-0.061508775
1.6042855,-3.82766,-0.65733767,33.0,3,-0.061504167
1.8416095,-4.398196,-0.58546036,37.0,4,-0.06149956
2.2468214,-5.368567,-0.50916386,39.0,5,-0.06149495
2.8983681,-6.9321694,-0.39377576,45.0,6,-0.061490342
30.419804,-72.79224,18.213837,24.0,14,-0.061488036
3.7658114,-9.011295,-0.17047511,42.0,7,-0.061485734
1.133914,-2.725394,-0.7909511,51.0,0,-0.061462693
5.1112795,-12.285103,0.23225662,14.0,8,-0.06146039
1.2533418,-3.013925,-0.75358605,41.0,1,-0.061458085
14.041298,-33.78189,1.9172757,27.0,9,-0.061455783
1.4047256,-3.3812876,-0.7117176,41.0,2,-0.061453477
1.5984018,-3.8493779,-0.6601535,32.0,3,-0.06144887
1.8156048,-4.376775,-0.5818043,39.0,4,-0.06144426
2.2280679,-5.3763776,-0.50916386,42.0,5,-0.061439652
2.8944721,-6.9878736,-0.39639258,40.0,6,-0.061435044
3.7496252,-9.061341,-0.1711732,49.0,7,-0.061430436
1.1270785,-2.7344975,-0.7925039,57.0,0,-0.0614074
5.0112376,-12.1642,0.22963877,14.0,8,-0.061405092
1.2450398,-3.0236874,-0.75493574,47.0,1,-0.06140279
14.007664,-34.03571,1.9288943,13.0,9,-0.061400484
1.393505,-3.3859274,-0.7117176,41.0,2,-0.061398182
1.5849547,-3.8549342,-0.6601535,33.0,3,-0.061393574
1.8380272,-4.4748974,-0.5939912,40.0,4,-0.061388966
2.2329268,-5.43903,-0.5143932,37.0,5,-0.061384358
2.8935568,-7.055219,-0.3996374,52.0,6,-0.06137975
24.706722,-60.271175,15.038428,14.0,14,-0.061377443
3.714181,-9.065122,-0.17099868,49.0,7,-0.06137514
1.1233661,-2.752724,-0.79664505,49.0,0,-0.0613521
5.291236,-12.972246,0.24454312,49.0,8,-0.061349798
1.2249132,-3.0045562,-0.74908704,45.0,1,-0.061347492
14.065884,-34.519054,1.953492,27.0,9,-0.06134519
1.3883448,-3.4071338,-0.71515214,36.0,2,-0.061342884
27.275604,-66.97041,6.3264613,48.0,10,-0.06134058
1.5938326,-3.9153311,-0.6695396,32.0,3,-0.061338276
23.44246,-57.616386,7.6375523,22.0,11,-0.061335973
1.8291259,-4.497836,-0.59618485,52.0,4,-0.061333667
2.2184293,-5.4578657,-0.5154391,35.0,5,-0.06132906
2.872668,-7.074529,-0.40016076,50.0,6,-0.061324455
23.971468,-59.06417,14.716299,13.0,14,-0.06132215
3.6915367,-9.100268,-0.17141753,49.0,7,-0.061319847
1.1137503,-2.7566288,-0.79664505,44.0,0,-0.061296806
5.367222,-13.291021,0.2501977,42.0,8,-0.0612945
1.2144182,-3.0088134,-0.74908704,41.0,1,-0.061292198
14.062621,-34.85874,1.9699256,13.0,9,-0.06128989
1.3698332,-3.3955731,-0.7117176,41.0,2,-0.06128759
1.5808945,-3.9227023,-0.66985244,43.0,3,-0.06128298
31.178879,-77.40371,10.246044,63.0,11,-0.06128068
1.8237935,-4.5299735,-0.5995972,57.0,4,-0.061278373
2.1984103,-5.46596,-0.5154391,39.0,5,-0.061273765
2.8881838,-7.184582,-0.40581304,57.0,6,-0.061269157
23.813103,-59.26683,14.745992,13.0,14,-0.061266854
3.6530411,-9.096397,-0.1711034,45.0,7,-0.06126455
1.1007708,-2.753517,-0.7945745,49.0,0,-0.061241508
5.360138,-13.408086,0.25204766,40.0,8,-0.061239205
1.217646,-3.0474176,-0.7576352,47.0,1,-0.061236903
14.248264,-35.677364,2.0133643,14.0,9,-0.061234597
1.3602897,-3.4078643,-0.7132441,41.0,2,-0.061232295
26.727745,-66.99363,6.310425,96.0,10,-0.06122999
1.5650429,-3.9248013,-0.66922677,42.0,3,-0.061227687
1.8131149,-4.54922,-0.60130334,52.0,4,-0.06122308
2.1881607,-5.495813,-0.5175308,37.0,5,-0.06121847
2.8957868,-7.280489,-0.41062793,63.0,6,-0.061213862
23.571959,-59.29395,14.731144,26.0,14,-0.061211556
3.6493378,-9.179706,-0.17242977,42.0,7,-0.061209254
1.0897312,-2.7537498,-0.7935392,48.0,0,-0.061186213
5.440405,-13.75492,0.2581909,42.0,8,-0.06118391
1.2043195,-3.0464227,-0.7562855,45.0,1,-0.061181605
13.886948,-35.146088,1.9804975,4.0,9,-0.061179303
1.3512716,-3.419896,-0.71477056,39.0,2,-0.061176997
26.515688,-67.142105,6.315654,48.0,10,-0.061174694
1.5556852,-3.9412649,-0.67110395,37.0,3,-0.06117239
1.8066237,-4.58169,-0.60471576,52.0,4,-0.06116778
2.1796863,-5.533457,-0.52031976,32.0,5,-0.061163172
2.8747454,-7.3017035,-0.411256,60.0,6,-0.061158564
22.873188,-58.12644,14.421162,12.0,14,-0.06115626
3.6310387,-9.2321005,-0.17316279,38.0,7,-0.061153956
1.0782223,-2.7541277,-0.7925039,47.0,0,-0.06113092
5.4251637,-13.857619,0.25976163,42.0,8,-0.061128613
1.192968,-3.0487936,-0.75583553,44.0,1,-0.06112631
14.190468,-36.284348,2.0418353,29.0,9,-0.061124004
1.3415868,-3.4321394,-0.71629703,38.0,2,-0.061121702
29.446522,-75.370895,7.0794864,63.0,10,-0.061119396
1.5369179,-3.9359,-0.66922677,38.0,3,-0.061117094
1.791341,-4.5898166,-0.6049595,54.0,4,-0.061112486
2.1878603,-5.6115704,-0.5269436,37.0,5,-0.061107878
2.8559372,-7.3326635,-0.4124074,57.0,6,-0.06110327
22.651505,-58.18809,14.415763,12.0,14,-0.061100964
3.5857332,-9.211175,-0.1725345,38.0,7,-0.06109866
1.0735402,-2.7663193,-0.7950921,46.0,0,-0.061077118
5.420651,-13.975269,0.26164648,60.0,8,-0.061074816
1.1819755,-3.0488923,-0.75493574,47.0,1,-0.06107251
14.224335,-36.71053,2.063293,25.0,9,-0.061070208
1.3392,-3.456242,-0.7204948,37.0,2,-0.0610679
23.45361,-60.561058,5.681857,33.0,10,-0.0610656
1.5316508,-3.957022,-0.6720425,46.0,3,-0.061063293
1.7711853,-4.5806103,-0.6030096,54.0,4,-0.061058685
2.1410356,-5.539983,-0.51962256,32.0,5,-0.061054077
2.83273,-7.3373775,-0.41219804,55.0,6,-0.06104947
22.499094,-58.307777,14.428811,24.0,14,-0.061047167
3.5603755,-9.231725,-0.17270902,42.0,7,-0.06104486
1.0735743,-2.795298,-0.8023391,50.0,0,-0.061021823
5.3976336,-14.061314,0.26290306,76.0,8,-0.061019517
1.1762115,-3.0657356,-0.7580851,48.0,1,-0.061017215
14.319219,-37.34179,2.0959506,10.0,9,-0.06101491
1.32291,-3.4498966,-0.7182051,34.0,2,-0.061012607
1.5227747,-3.9752572,-0.67423266,42.0,3,-0.061008
1.7523478,-4.5793486,-0.60203457,42.0,4,-0.06100339
2.1216836,-5.547423,-0.51962256,32.0,5,-0.060998783
2.836327,-7.4237156,-0.41648957,57.0,6,-0.060994174
22.06393,-57.77972,14.278993,12.0,14,-0.06099187
3.5281289,-9.244096,-0.17270902,42.0,7,-0.060989566
1.0638106,-2.7990284,-0.8023391,50.0,0,-0.060966525
5.4159765,-14.25766,0.26621902,50.0,8,-0.060964223
1.1703451,-3.0825756,-0.76123434,44.0,1,-0.060961917
14.442459,-38.060055,2.1334233,10.0,9,-0.060959615
1.3213073,-3.4820268,-0.72392935,39.0,2,-0.06095731
1.5116904,-3.987937,-0.6754841,42.0,3,-0.0609527
21.98447,-58.02701,7.619028,21.0,11,-0.0609504
1.7454902,-4.6095715,-0.6052032,45.0,4,-0.060948092
2.1220536,-5.6069703,-0.52450323,34.0,5,-0.060943484
2.8379412,-7.506431,-0.42057177,55.0,6,-0.060938876
21.687151,-57.39336,14.164718,11.0,14,-0.060936574
3.5170343,-9.312476,-0.17375615,24.0,7,-0.06093427
1.0499531,-2.7918756,-0.7992332,52.0,0,-0.06091123
5.3900967,-14.34012,0.26740578,48.0,8,-0.060908925
1.1561513,-3.0775204,-0.75898486,48.0,1,-0.060906623
14.426058,-38.420624,2.1507986,11.0,9,-0.060904317
1.3153557,-3.5031595,-0.72736394,34.0,2,-0.060902014
1.5060855,-4.0153832,-0.6792385,41.0,3,-0.060897406
22.499504,-60.017937,7.870079,26.0,11,-0.0608951
1.7481949,-4.665827,-0.61178416,47.0,4,-0.060892798
2.1192374,-5.6591244,-0.52868676,39.0,5,-0.06088819
2.828517,-7.5611877,-0.42308393,49.0,6,-0.06088358
21.43753,-57.337288,14.132324,11.0,14,-0.06088128
3.491506,-9.34343,-0.17410521,24.0,7,-0.060878973
1.038854,-2.7919023,-0.798198,46.0,0,-0.060855933
5.5031157,-14.79743,0.2755735,50.0,8,-0.06085363
1.1358958,-3.055965,-0.75268626,48.0,1,-0.060851324
14.593027,-39.281418,2.1961217,5.0,9,-0.060849022
1.3025074,-3.5079567,-0.72736394,32.0,2,-0.060846716
1.4948089,-4.0280247,-0.68049,40.0,3,-0.06084211
21.820444,-58.830494,7.7043366,23.0,11,-0.060839806
1.745698,-4.709127,-0.6166589,47.0,4,-0.060837504
2.0887954,-5.640695,-0.52624637,39.0,5,-0.060832895
2.8194933,-7.62208,-0.42591006,55.0,6,-0.060828287
21.128412,-57.11751,14.059891,22.0,14,-0.06082598
3.6058798,-9.753189,-0.18150502,29.0,7,-0.06082368
1.0306154,-2.8011303,-0.79975086,48.0,0,-0.060800638
5.480591,-14.903834,0.27717912,48.0,8,-0.060798332
1.1414944,-3.1058352,-0.7639338,44.0,1,-0.06079603
14.910357,-40.590748,2.2662518,6.0,9,-0.060793728
1.2761089,-3.4758475,-0.71973157,37.0,2,-0.06079142
1.4909228,-4.063148,-0.685496,40.0,3,-0.060786813
21.604671,-58.910076,7.7043366,23.0,11,-0.06078451
1.7325252,-4.726676,-0.6181213,47.0,4,-0.060782205
2.0783827,-5.676378,-0.52886105,39.0,5,-0.060777597
2.8045733,-7.6680026,-0.42789882,63.0,6,-0.06077299
20.469767,-55.966526,13.758007,10.0,14,-0.060770687
3.620227,-9.903444,-0.18405308,32.0,7,-0.06076838
1.0243043,-2.8157818,-0.80285674,49.0,0,-0.060745344
5.4129457,-14.888114,0.27651593,45.0,8,-0.060743038
1.1221166,-3.0880196,-0.75853497,44.0,1,-0.060740735
14.926478,-41.099426,2.2915823,6.0,9,-0.06073843
1.2733502,-3.5061157,-0.72507423,30.0,2,-0.060736127
1.4787157,-4.076013,-0.68674743,41.0,3,-0.06073152
1.7185706,-4.7423263,-0.61934006,50.0,4,-0.06072691
2.0558424,-5.676105,-0.5281638,40.0,5,-0.060722303
19.639915,-54.25467,11.215754,37.0,13,-0.060719997
2.7995336,-7.7378454,-0.43124834,63.0,6,-0.060717694
20.2824,-56.090652,13.770154,31.0,14,-0.06071539
3.5893419,-9.931691,-0.18433231,25.0,7,-0.060713086
1.013161,-2.8157046,-0.8018214,49.0,0,-0.060690045
5.3731246,-14.940789,0.27714422,22.0,8,-0.060687743
1.1231956,-3.1249275,-0.7666332,43.0,1,-0.060685437
1.2703965,-3.536406,-0.73041683,33.0,2,-0.06068083
1.4704827,-4.097883,-0.68956316,49.0,3,-0.06067622
1.6946387,-4.7277412,-0.6166589,39.0,4,-0.060671613
20.650656,-57.643353,9.697999,23.0,12,-0.06066931
2.0514708,-5.726387,-0.532173,34.0,5,-0.060667004
19.540422,-54.57427,11.267653,38.0,13,-0.060664702
2.7792363,-7.766374,-0.43229502,55.0,6,-0.060662396
20.696806,-57.86758,14.188562,23.0,14,-0.060660094
3.5687866,-9.983704,-0.18506531,36.0,7,-0.06065779
1.0007354,-2.8119438,-0.79975086,48.0,0,-0.06063475
5.332332,-14.991481,0.2777376,18.0,8,-0.060632445
1.1096692,-3.1214843,-0.76483357,40.0,1,-0.060630143
15.492665,-43.580654,2.4239924,14.0,9,-0.060627837
1.2672467,-3.5667186,-0.7357595,37.0,2,-0.060625535
1.4502238,-4.086237,-0.68674743,41.0,3,-0.060620926
1.7008508,-4.7950735,-0.62470233,39.0,4,-0.060616318
2.046774,-5.776706,-0.5361821,29.0,5,-0.06061171
2.778763,-7.8513412,-0.4364819,63.0,6,-0.0606071
20.09713,-56.784046,13.906474,44.0,14,-0.0606048
3.5463307,-10.025647,-0.1856238,39.0,7,-0.060602494
1.0010303,-2.8425794,-0.80751544,45.0,0,-0.060579453
5.41271,-15.378793,0.28457895,20.0,8,-0.06057715
1.1096587,-3.15456,-0.772032,43.0,1,-0.060574844
15.527672,-44.14238,2.4523585,7.0,9,-0.060572542
1.2606211,-3.5857184,-0.73881245,37.0,2,-0.060570236
1.4412467,-4.10407,-0.6889375,49.0,3,-0.060565628
1.6948019,-4.8287835,-0.62835836,40.0,4,-0.060561024
2.0546322,-5.8605494,-0.5433289,34.0,5,-0.060556415
2.7566736,-7.871823,-0.43710995,65.0,6,-0.060551807
19.951876,-56.973606,13.936618,22.0,14,-0.0605495
3.5408096,-10.116624,-0.1870898,37.0,7,-0.0605472
0.9979548,-2.8641262,-0.8126918,46.0,0,-0.06052416
5.3485327,-15.358887,0.28388086,34.0,8,-0.060521852
1.0947077,-3.1453395,-0.7688827,45.0,1,-0.06051955
15.65827,-45.015007,2.497786,7.0,9,-0.060517244
1.2532384,-3.6028588,-0.7414838,42.0,2,-0.06051494
1.4230913,-4.095765,-0.68674743,35.0,3,-0.060510334
1.6798879,-4.8402963,-0.6290896,39.0,4,-0.060505725
20.154137,-58.10325,9.740549,23.0,12,-0.060503423
2.0665278,-5.957684,-0.5516958,39.0,5,-0.060501117
2.7338233,-7.890357,-0.4376333,70.0,6,-0.06049651
20.843918,-60.193638,14.706399,13.0,14,-0.060494207
3.5290186,-10.196953,-0.18834637,41.0,7,-0.0604919
0.9910977,-2.8767245,-0.81528,48.0,0,-0.060468864
5.317021,-15.44175,0.28506762,26.0,8,-0.060466558
1.0925994,-3.174939,-0.7751813,45.0,1,-0.060464256
15.763473,-45.832417,2.5400736,8.0,9,-0.06046195
1.2425699,-3.6127813,-0.74262863,37.0,2,-0.060459647
1.4216219,-4.138072,-0.6930048,44.0,3,-0.06045504
1.6720028,-4.872417,-0.6325019,42.0,4,-0.06045043
20.007587,-58.337677,9.768082,24.0,12,-0.060448125
2.0812685,-6.0685163,-0.561283,39.0,5,-0.060445823
2.706265,-7.8998513,-0.4376333,65.0,6,-0.060441215
20.604637,-60.18123,14.685705,13.0,14,-0.06043891
3.5328944,-10.32462,-0.19047557,45.0,7,-0.060436606
0.97980416,-2.8765094,-0.81424475,47.0,0,-0.060413565
5.287576,-15.532148,0.28639397,44.0,8,-0.060411263
1.0846484,-3.187958,-0.77743083,44.0,1,-0.060408957
1.2293192,-3.615238,-0.74224705,39.0,2,-0.06040435
1.4052626,-4.137398,-0.6920662,48.0,3,-0.06039974
1.6581734,-4.8876233,-0.63372064,40.0,4,-0.060395133
2.056234,-6.064423,-0.5602371,40.0,5,-0.060390525
18.604156,-54.900494,11.267653,38.0,13,-0.060388222
2.6786716,-7.9092503,-0.4376333,68.0,6,-0.060385916
19.920855,-58.853615,14.344679,12.0,14,-0.060383614
3.5404081,-10.465697,-0.19284908,45.0,7,-0.06038131
0.9697572,-2.8799121,-0.81424475,47.0,0,-0.06035827
5.6070876,-16.661127,0.3068482,52.0,8,-0.060355965
1.0691653,-3.178795,-0.7742815,41.0,1,-0.060353663
15.928048,-47.383934,2.6198335,8.0,9,-0.060351357
1.2254502,-3.6455598,-0.7475897,38.0,2,-0.060349055
23.85348,-71.00215,6.553066,53.0,10,-0.06034675
1.4052737,-4.1853485,-0.69926214,42.0,3,-0.060344446
1.6385775,-4.8858533,-0.6327457,40.0,4,-0.06033984
19.377592,-57.812904,9.657326,22.0,12,-0.060337532
2.034419,-6.0696745,-0.56006277,42.0,5,-0.06033523
18.331343,-54.72309,11.218043,37.0,13,-0.060332924
2.6586566,-7.94128,-0.43888938,63.0,6,-0.060330622
20.34724,-60.811485,14.804479,13.0,14,-0.06032832
3.517805,-10.519715,-0.193617,46.0,7,-0.060326014
0.95603776,-2.8722816,-0.8111389,44.0,0,-0.060302973
5.64484,-16.969013,0.31215376,30.0,8,-0.06030067
1.0611367,-3.191754,-0.77653104,47.0,1,-0.060298365
1.1947649,-3.5957854,-0.73652273,31.0,2,-0.060293756
1.3850554,-4.1733546,-0.6964463,49.0,3,-0.06028915
1.6265099,-4.906617,-0.6346956,40.0,4,-0.06028454
2.0357766,-6.1448255,-0.566338,42.0,5,-0.060279936
18.220425,-55.029037,11.267653,38.0,13,-0.06027763
2.6259012,-7.935343,-0.43805203,55.0,6,-0.060275327
19.007132,-57.47225,13.975309,22.0,14,-0.06027302
3.4911048,-10.562308,-0.19417547,46.0,7,-0.06027072
0.95083535,-2.8902822,-0.81528,43.0,0,-0.06024768
5.669267,-17.243168,0.316831,38.0,8,-0.060245372
1.0505972,-3.1972902,-0.77698094,45.0,1,-0.06024307
1.2048699,-3.6689482,-0.75064266,41.0,2,-0.060238462
1.389565,-4.236351,-0.7061453,45.0,3,-0.060233854
1.6248231,-4.959426,-0.6407891,39.0,4,-0.060229246
2.0192752,-6.1670423,-0.5677325,42.0,5,-0.060224637
2.5839055,-7.9007993,-0.43564454,55.0,6,-0.06022003
20.398066,-62.407967,15.158102,14.0,14,-0.060217727
3.4951963,-10.699886,-0.19647919,46.0,7,-0.06021542
22.62843,-69.31369,19.537214,57.0,15,-0.06021312
0.9401437,-2.8917465,-0.8147624,46.0,0,-0.06019238
5.665272,-17.435917,0.32000732,34.0,8,-0.060190078
1.0436431,-3.213912,-0.78013027,43.0,1,-0.060187776
16.59498,-51.134804,2.817454,10.0,9,-0.06018547
1.1908438,-3.6693969,-0.7498794,38.0,2,-0.060183167
1.3711141,-4.229901,-0.70426804,42.0,3,-0.06017856
1.5934387,-4.9216304,-0.6351831,39.0,4,-0.06017395
18.825253,-58.179924,9.685172,23.0,12,-0.060171645
2.003256,-6.191114,-0.5693013,40.0,5,-0.060169343
2.5968485,-8.035201,-0.4425529,57.0,6,-0.060164735
18.846823,-58.350872,14.15662,34.0,14,-0.06016243
3.4645813,-10.732956,-0.19686314,42.0,7,-0.060160127
0.9270894,-2.8858142,-0.8121742,47.0,0,-0.060137086
5.631885,-17.541265,0.32157803,26.0,8,-0.060134783
1.0342046,-3.223102,-0.78147995,39.0,1,-0.060132477
1.1804254,-3.6810095,-0.7514059,39.0,2,-0.06012787
1.3527251,-4.2233734,-0.70239085,45.0,3,-0.06012326
1.6131452,-5.042495,-0.6500511,42.0,4,-0.060118653
18.572721,-58.090992,9.659516,22.0,12,-0.06011635
1.9877001,-6.2170463,-0.57104445,39.0,5,-0.060114045
2.563924,-8.028996,-0.4417155,76.0,6,-0.060109437
21.447832,-67.204926,16.286455,17.0,14,-0.060107134
3.4422872,-10.792612,-0.19773577,38.0,7,-0.06010483
0.9170103,-2.8890328,-0.8121742,44.0,0,-0.06008179
5.646806,-17.800985,0.32597607,26.0,8,-0.060079485
1.0176473,-3.2099738,-0.77743083,44.0,1,-0.060077183
1.1657904,-3.6794925,-0.750261,34.0,2,-0.060072575
1.3463187,-4.254436,-0.70677096,39.0,3,-0.060067967
1.6188653,-5.121914,-0.6595569,40.0,4,-0.06006336
1.974988,-6.252445,-0.57365906,37.0,5,-0.06005875
2.5761435,-8.165514,-0.44872853,80.0,6,-0.060054142
21.197874,-67.231064,16.27476,17.0,14,-0.060051836
3.4009857,-10.793119,-0.19752634,31.0,7,-0.060049534
0.9063423,-2.8903728,-0.81165653,45.0,0,-0.060026493
5.58882,-17.833946,0.3262204,16.0,8,-0.06002419
1.007601,-3.217226,-0.7783307,43.0,1,-0.060021885
1.162323,-3.7135174,-0.7563669,33.0,2,-0.060017277
1.3320489,-4.260995,-0.7070838,35.0,3,-0.06001267
1.5997939,-5.1237445,-0.6590695,40.0,4,-0.06000806
20.929924,-67.07452,11.12875,43.0,12,-0.060005758
1.9715494,-6.318261,-0.57906276,39.0,5,-0.060003452
17.529625,-56.21204,11.445487,38.0,13,-0.06000115
2.5565395,-8.203058,-0.4502986,77.0,6,-0.059998848
20.920767,-67.16882,16.241917,34.0,14,-0.05999654
3.4179685,-10.980584,-0.20073758,27.0,7,-0.05999424
0.90024817,-2.9064362,-0.81528,47.0,0,-0.0599712
5.4041314,-17.45792,0.31899512,20.0,8,-0.059968892
0.99866825,-3.2281704,-0.78013027,43.0,1,-0.05996659
17.239803,-55.761703,3.0588276,12.0,9,-0.059964284
1.1557317,-3.7381845,-0.76056474,38.0,2,-0.059961982
19.355465,-62.643497,5.7362423,34.0,10,-0.059959676
1.3276578,-4.299593,-0.7127155,34.0,3,-0.059957374
22.116383,-71.66783,9.209179,52.0,11,-0.05995507
1.559083,-5.055317,-0.64956367,42.0,4,-0.059952766
19.239923,-62.424015,10.345951,32.0,12,-0.059950463
1.9530034,-6.336528,-0.5801086,39.0,5,-0.059948158
17.251242,-56.00646,11.391298,38.0,13,-0.059945855
2.523189,-8.196661,-0.44946122,67.0,6,-0.05994355
22.031017,-71.612946,17.297836,20.0,14,-0.059941247
3.4142911,-11.10522,-0.20279697,28.0,7,-0.05993894
0.8946187,-2.9243398,-0.8194211,44.0,0,-0.0599159
5.722596,-18.717772,0.3416483,18.0,8,-0.059913598
0.9885324,-3.2353642,-0.78103006,40.0,1,-0.059911296
17.034561,-55.78716,3.0569437,12.0,9,-0.05990899
1.142103,-3.740318,-0.7601831,32.0,2,-0.059906688
1.3172511,-4.319317,-0.7152184,33.0,3,-0.05990208
1.5801795,-5.1879582,-0.66589415,54.0,4,-0.05989747
1.9500191,-6.4062066,-0.58586085,37.0,5,-0.059892863
2.4916568,-8.195864,-0.44893786,60.0,6,-0.059888255
20.472858,-67.384094,16.259012,34.0,14,-0.05988595
3.3220544,-10.941034,-0.19958572,19.0,7,-0.059883647
0.8782601,-2.9071023,-0.8137271,45.0,0,-0.059860606
5.3792195,-17.816832,0.32485908,2.0,8,-0.059858304
0.9851142,-3.2649143,-0.7873287,34.0,1,-0.059855998
1.1330067,-3.7574399,-0.7628544,38.0,2,-0.05985139
21.962152,-72.880035,6.659396,56.0,10,-0.059849087
1.3164068,-4.3711753,-0.72304016,56.0,3,-0.05984678
1.5740672,-5.233363,-0.67101264,52.0,4,-0.059842173
1.9351016,-6.437779,-0.5881269,39.0,5,-0.059837565
2.4756668,-8.246596,-0.4512407,60.0,6,-0.059832957
20.271677,-67.56901,16.286455,34.0,14,-0.059830654
3.3607996,-11.209234,-0.20426297,24.0,7,-0.05982835
0.86644995,-2.9045968,-0.8121742,47.0,0,-0.05980531
5.5740743,-18.69786,0.34056628,12.0,8,-0.059803005
0.9698165,-3.2552595,-0.78417933,36.0,1,-0.059800703
1.1277273,-3.7877142,-0.768197,47.0,2,-0.059796095
1.3095858,-4.4041457,-0.72773325,37.0,3,-0.059791487
1.5648324,-5.2692733,-0.67491245,54.0,4,-0.05978688
1.9199864,-6.4693255,-0.59039295,39.0,5,-0.05978227
17.57041,-59.24075,12.011045,42.0,13,-0.059779964
2.4468653,-8.255188,-0.4512407,60.0,6,-0.059777662
20.205051,-68.21111,16.424126,17.0,14,-0.059775356
3.388629,-11.447156,-0.20838173,24.0,7,-0.059773054
0.8634344,-2.9336984,-0.8194211,43.0,0,-0.05976224
5.7724013,-19.625582,0.35707623,14.0,8,-0.059759937
0.9622756,-3.2737496,-0.78777856,37.0,1,-0.05975763
1.1094104,-3.7767532,-0.7651441,43.0,2,-0.059753023
18.69244,-63.67555,5.805967,36.0,10,-0.05975072
1.3040003,-4.4449296,-0.7336777,37.0,3,-0.059748415
18.104227,-61.751553,7.901277,27.0,11,-0.059746113
1.5510904,-5.294023,-0.67734987,47.0,4,-0.059743807
1.9085792,-6.5183854,-0.59422785,35.0,5,-0.0597392
17.366396,-59.34997,12.020204,42.0,13,-0.059736896
2.405942,-8.227677,-0.4492519,55.0,6,-0.05973459
20.715805,-70.88846,17.05039,19.0,14,-0.059732288
3.3273351,-11.385977,-0.20705535,24.0,7,-0.059729982
20.494223,-70.175705,19.58898,58.0,15,-0.05972768
0.8531888,-2.9366944,-0.8194211,44.0,0,-0.059706945
5.5572157,-19.128057,0.34768686,6.0,8,-0.05970464
0.9476107,-3.2638223,-0.7846293,40.0,1,-0.059702337
1.096767,-3.782488,-0.7655257,40.0,2,-0.05969773
18.595385,-64.1729,5.845361,37.0,10,-0.059695423
1.2936519,-4.4644084,-0.7361807,37.0,3,-0.05969312
1.5362854,-5.308672,-0.67856854,43.0,4,-0.059688512
1.9112613,-6.613054,-0.60224617,37.0,5,-0.059683904
17.152044,-59.34688,12.007993,42.0,13,-0.059681598
2.431294,-8.417899,-0.4591957,52.0,6,-0.059679296
19.56299,-67.77759,16.286455,17.0,14,-0.05967699
3.36239,-11.656906,-0.21176751,48.0,7,-0.059674688
0.8450441,-2.9450786,-0.82097405,46.0,0,-0.059651647
5.57309,-19.435673,0.35292256,8.0,8,-0.059649345
0.94050604,-3.282097,-0.7882285,40.0,1,-0.05964704
19.184786,-66.99354,3.6521082,31.0,9,-0.059644736
1.0690844,-3.7332575,-0.75484043,36.0,2,-0.05964243
1.2780598,-4.4688973,-0.7361807,35.0,3,-0.059637822
1.530284,-5.357904,-0.68417454,42.0,4,-0.059633214
1.9079133,-6.684496,-0.6081728,35.0,5,-0.059628606
17.607145,-61.728577,12.477383,45.0,13,-0.059626304
2.441315,-8.564629,-0.46673208,57.0,6,-0.059623998
19.209372,-67.43501,16.18793,34.0,14,-0.059621695
3.339199,-11.730117,-0.21288446,32.0,7,-0.059619393
19.580933,-68.830574,19.17487,55.0,15,-0.059617087
0.83107466,-2.934999,-0.8173506,44.0,0,-0.059596352
5.534071,-19.55699,0.3547725,17.0,8,-0.059594046
0.9285137,-3.2834847,-0.78777856,36.0,1,-0.059591744
19.052927,-67.42143,3.6717865,32.0,9,-0.05958944
1.0709953,-3.789866,-0.7655257,33.0,2,-0.059587136
18.932465,-67.03986,6.0946264,42.0,10,-0.05958483
1.2710375,-4.503749,-0.7411866,35.0,3,-0.059582528
17.638739,-62.542263,7.9787865,28.0,11,-0.05958022
1.5142642,-5.372766,-0.6853932,42.0,4,-0.05957792
1.8845689,-6.691115,-0.6081728,34.0,5,-0.05957331
2.45629,-8.732679,-0.47541988,59.0,6,-0.059568703
19.010254,-67.6311,16.218971,17.0,14,-0.0595664
3.3058038,-11.768655,-0.21337312,32.0,7,-0.059564095
19.277895,-68.6753,19.112751,55.0,15,-0.059561793
0.8249829,-2.952767,-0.8214917,47.0,0,-0.059541054
5.546433,-19.865091,0.36000824,4.0,8,-0.05953875
0.91966546,-3.296091,-0.7900281,40.0,1,-0.059536446
20.15747,-72.293365,3.933257,42.0,9,-0.059534144
1.0603962,-3.8030372,-0.7674338,31.0,2,-0.059531838
1.2553091,-4.508158,-0.7411866,35.0,3,-0.059527233
17.569332,-63.138935,8.047034,30.0,11,-0.059524927
1.501883,-5.4009695,-0.68831813,43.0,4,-0.059522625
17.207005,-61.920547,10.178879,30.0,12,-0.05952032
1.8734695,-6.7418046,-0.6121819,35.0,5,-0.059518017
2.4450197,-8.810482,-0.47918805,61.0,6,-0.05951341
19.086517,-68.82376,16.488913,17.0,14,-0.059511103
3.2524195,-11.7358,-0.21257031,24.0,7,-0.0595088
0.81826437,-2.9686654,-0.82511514,50.0,0,-0.05948576
6.2449303,-22.67207,0.4104806,25.0,8,-0.059483454
0.90556806,-3.289887,-0.78777856,39.0,1,-0.05948115
20.010944,-72.74843,3.954191,43.0,9,-0.05947885
1.0445114,-3.7972503,-0.7655257,31.0,2,-0.059476543
1.2416573,-4.5201316,-0.7424381,35.0,3,-0.059471935
17.34462,-63.184566,8.045083,30.0,11,-0.059469633
1.4966747,-5.4559526,-0.6946553,52.0,4,-0.059467327
17.316645,-63.16901,10.374109,32.0,12,-0.059465025
1.8599336,-6.784811,-0.61549383,34.0,5,-0.05946272
2.430071,-8.876755,-0.48232824,61.0,6,-0.05945811
3.363306,-12.302608,-0.2226229,24.0,7,-0.059453502
0.8084035,-2.9733675,-0.82563275,43.0,0,-0.059430465
5.887349,-21.66904,0.39194614,2.0,8,-0.05942816
0.9012275,-3.3193572,-0.7940772,36.0,1,-0.059425857
1.0348482,-3.8141365,-0.768197,32.0,2,-0.05942125
1.2263886,-4.5263453,-0.74275094,34.0,3,-0.05941664
1.472436,-5.4419823,-0.69221795,52.0,4,-0.059412032
16.977455,-62.79048,10.30215,31.0,12,-0.059409726
1.8424798,-6.8143425,-0.6175856,35.0,5,-0.059407424
2.4136484,-8.939174,-0.48525903,57.0,6,-0.059402816
18.57156,-68.829285,16.458769,35.0,14,-0.05940051
3.2167432,-11.930057,-0.21567684,16.0,7,-0.059398208
18.678312,-69.32109,19.236986,56.0,15,-0.0593959
0.8000208,-2.9836352,-0.82770336,42.0,0,-0.059375167
6.898031,-25.7438,0.46521136,8.0,8,-0.059372865
0.8830822,-3.2980113,-0.7882285,28.0,1,-0.05937056
1.0306629,-3.8518634,-0.7750662,32.0,2,-0.05936595
1.2156798,-4.5496826,-0.7458796,33.0,3,-0.059361342
17.042387,-63.82578,8.111381,31.0,11,-0.05935904
1.4698082,-5.5084643,-0.7000176,63.0,4,-0.059356734
16.764273,-62.872272,10.305904,31.0,12,-0.059354432
1.8474268,-6.9285393,-0.62734705,35.0,5,-0.059352126
2.4122367,-9.0594845,-0.49133,61.0,6,-0.059347518
16.850487,-63.32878,15.129309,28.0,14,-0.059345216
3.3374562,-12.551897,-0.22670676,32.0,7,-0.059342913
18.396534,-69.2365,19.195574,56.0,15,-0.059340607
0.7886138,-2.9826741,-0.8266681,42.0,0,-0.059319872
6.363207,-24.083773,0.43480927,2.0,8,-0.059317566
0.8874839,-3.3613672,-0.80262536,42.0,1,-0.059315264
1.0292312,-3.9009967,-0.784225,32.0,2,-0.059310656
1.2199222,-4.6303062,-0.75839436,36.0,3,-0.059306048
16.808367,-63.84264,8.106018,31.0,11,-0.059303742
1.4369339,-5.4617276,-0.6934366,46.0,4,-0.05930144
16.527634,-62.865448,10.295266,31.0,12,-0.059299134
1.8404554,-7.0004606,-0.6332736,40.0,5,-0.05929683
2.3780613,-9.05819,-0.49080664,54.0,6,-0.059292223
16.914663,-64.47484,15.388902,30.0,14,-0.05928992
3.2855074,-12.532521,-0.22614828,28.0,7,-0.059287615
0.7801462,-2.9928863,-0.82873863,41.0,0,-0.059264574
6.981257,-26.801462,0.48343167,6.0,8,-0.059262272
0.8806544,-3.3833034,-0.8071244,40.0,1,-0.059259966
1.0185732,-3.915966,-0.7865147,36.0,2,-0.059255358
1.2012695,-4.6249766,-0.75683004,34.0,3,-0.05925075
1.4133748,-5.4494166,-0.691243,56.0,4,-0.059246145
16.28132,-62.819504,10.278371,31.0,12,-0.05924384
1.816007,-7.006843,-0.6332736,39.0,5,-0.059241537
2.3559368,-9.103174,-0.4927954,45.0,6,-0.05923693
16.699738,-64.57311,15.39835,15.0,14,-0.059234623
3.2697616,-12.652334,-0.22810295,28.0,7,-0.05923232
17.99002,-69.66252,19.278395,56.0,15,-0.059230015
0.77402145,-3.0124311,-0.8333974,37.0,0,-0.05920928
7.139299,-27.805727,0.5010935,9.0,8,-0.059206974
0.85624677,-3.3372796,-0.79542696,32.0,1,-0.05920467
1.0097737,-3.9385147,-0.7903309,36.0,2,-0.059200063
1.1762986,-4.5946956,-0.75119835,31.0,3,-0.059195455
18.960968,-74.11655,9.393446,56.0,11,-0.059193153
1.4125359,-5.525477,-0.7002613,61.0,4,-0.059190847
16.064878,-62.887432,10.280249,31.0,12,-0.059188545
1.8050978,-7.0713663,-0.63850296,39.0,5,-0.05918624
2.3345127,-9.151983,-0.4949935,40.0,6,-0.05918163
16.20084,-63.55842,15.142805,14.0,14,-0.05917933
3.235448,-12.702426,-0.22880106,52.0,7,-0.059177022
0.7681879,-3.0358486,-0.83909136,42.0,0,-0.059153985
7.153056,-28.268599,0.508982,6.0,8,-0.05915168
0.86226785,-3.4101512,-0.8120733,39.0,1,-0.059149377
1.0015789,-3.9669352,-0.79529196,46.0,2,-0.05914477
1.1705576,-4.643031,-0.75839436,36.0,3,-0.05914016
18.708939,-74.209236,9.396858,56.0,11,-0.059137855
1.3927542,-5.5284495,-0.7000176,63.0,4,-0.059135552
15.919532,-63.23813,10.32843,32.0,12,-0.059133247
1.7774866,-7.0660305,-0.6374571,37.0,5,-0.059130944
2.305819,-9.17985,-0.49604025,54.0,6,-0.059126336
16.204508,-64.56053,15.367307,29.0,14,-0.05912403
3.1930354,-12.721401,-0.22894068,36.0,7,-0.059121728
0.75992286,-3.047884,-0.8416796,38.0,0,-0.059098687
7.4395313,-29.860516,0.5371502,3.0,8,-0.059096385
0.83469814,-3.3527763,-0.79767644,36.0,1,-0.05909408
0.98677796,-3.9665966,-0.79452866,40.0,2,-0.05908947
1.1543432,-4.647089,-0.75839436,37.0,3,-0.059084862
1.3758271,-5.547004,-0.70172375,61.0,4,-0.059080254
1.7499347,-7.0605893,-0.63641125,39.0,5,-0.059075646
2.2886345,-9.247944,-0.4992851,58.0,6,-0.059071038
16.070274,-64.985596,15.455037,15.0,14,-0.059068736
3.1243224,-12.643719,-0.22733505,32.0,7,-0.05906643
0.7492794,-3.050518,-0.8416796,45.0,0,-0.059043393
7.956807,-32.418743,0.58266604,12.0,8,-0.059041087
0.8280955,-3.3764887,-0.80262536,40.0,1,-0.059038784
0.97386104,-3.9738305,-0.79529196,40.0,2,-0.059034176
1.1395233,-4.6568465,-0.75933295,39.0,3,-0.059029568
1.3606969,-5.569128,-0.70391744,58.0,4,-0.05902496
1.7394551,-7.1247206,-0.6416406,35.0,5,-0.05902035
2.2757344,-9.335435,-0.50357664,60.0,6,-0.059015743
15.811054,-64.90876,15.423544,15.0,14,-0.05901344
3.0981379,-12.728381,-0.22866142,44.0,7,-0.059011135
0.7395346,-3.0568705,-0.84271485,40.0,0,-0.058988094
7.947911,-32.877823,0.59041494,16.0,8,-0.058985792
0.8291166,-3.4323976,-0.8152226,34.0,1,-0.058983486
0.9645898,-3.9962907,-0.7991081,36.0,2,-0.058978878
1.1209466,-4.651194,-0.75776863,37.0,3,-0.05897427
1.333818,-5.542964,-0.7000176,56.0,4,-0.05896966
15.188041,-63.11713,10.282126,31.0,12,-0.05896736
1.7145743,-7.130749,-0.6416406,37.0,5,-0.058965057
2.25852,-9.40741,-0.5070308,49.0,6,-0.05896045
15.513467,-64.66794,15.35336,29.0,14,-0.058958143
3.0563796,-12.740529,-0.22869635,36.0,7,-0.05895584
0.73468006,-3.0838635,-0.8494441,42.0,0,-0.0589328
7.9431095,-33.34168,0.5982685,33.0,8,-0.058930494
0.8226938,-3.4559817,-0.82017154,41.0,1,-0.05892819
0.95426625,-4.014913,-0.80216104,38.0,2,-0.058923583
1.1068858,-4.6606517,-0.7587073,49.0,3,-0.058918975
16.411423,-69.155594,8.727064,43.0,11,-0.058916673
1.3209261,-5.5705338,-0.70294243,58.0,4,-0.058914367
1.6970173,-7.1677117,-0.64442956,39.0,5,-0.05890976
2.2622573,-9.562561,-0.51498586,58.0,6,-0.05890515
15.296243,-64.70766,15.35066,29.0,14,-0.05890285
3.0592358,-12.951572,-0.23229153,20.0,7,-0.058900543
0.7288641,-3.1050901,-0.8546205,44.0,0,-0.0588775
7.8787365,-33.591145,0.60224766,33.0,8,-0.0588752
0.815961,-3.4816005,-0.82557034,41.0,1,-0.058872897
0.9369183,-4.0008526,-0.7987265,32.0,2,-0.05886829
1.0973567,-4.693339,-0.76340026,52.0,3,-0.05886368
16.070576,-68.787186,8.673442,42.0,11,-0.058861375
1.3095955,-5.609908,-0.70732975,56.0,4,-0.058859073
14.844859,-63.64099,10.350331,32.0,12,-0.058856767
1.6814849,-7.2143393,-0.64809006,39.0,5,-0.058854464
14.813579,-63.557022,12.685364,46.0,13,-0.05885216
2.2474365,-9.650153,-0.51927745,51.0,6,-0.058849856
15.07381,-64.77583,15.3542595,14.0,14,-0.05884755
3.0620158,-13.1686325,-0.23599143,27.0,7,-0.058845248
0.7205205,-3.1209173,-0.858244,45.0,0,-0.058822207
7.803714,-33.801598,0.6055287,24.0,8,-0.058819905
0.8064316,-3.4958208,-0.8282698,39.0,1,-0.0588176
0.9178417,-3.9851274,-0.7949104,32.0,2,-0.05881299
1.0859022,-4.7223563,-0.76746756,40.0,3,-0.058808383
15.806342,-68.738396,8.66028,42.0,11,-0.05880608
1.2975625,-5.647334,-0.7114733,54.0,4,-0.058803774
14.784396,-64.39708,10.464841,34.0,12,-0.058801472
1.6589638,-7.231817,-0.64913595,39.0,5,-0.058799166
2.21874,-9.687529,-0.5208475,49.0,6,-0.058794558
3.1917882,-13.947267,-0.24974394,23.0,7,-0.05878995
0.7109063,-3.1290648,-0.85979694,41.0,0,-0.058766913
7.773178,-34.241436,0.6128936,25.0,8,-0.058764607
0.79361284,-3.498753,-0.8282698,37.0,1,-0.058762304
0.9043597,-3.9902215,-0.79529196,28.0,2,-0.058757696
1.0689754,-4.7241917,-0.7671547,36.0,3,-0.058753088
15.443987,-68.30794,8.598858,41.0,11,-0.058750782
1.2711686,-5.62688,-0.7083047,65.0,4,-0.05874848
14.748429,-65.28453,10.600626,36.0,12,-0.058746174
1.6367815,-7.251168,-0.6503561,39.0,5,-0.05874387
2.1989625,-9.757564,-0.524197,46.0,6,-0.058739264
3.1096995,-13.810059,-0.24709117,23.0,7,-0.058734655
0.6864936,-3.071197,-0.84323245,34.0,0,-0.058711614
7.704516,-34.468037,0.6164888,21.0,8,-0.058709312
0.7854047,-3.5165806,-0.831869,37.0,1,-0.058707006
0.8895705,-3.9895217,-0.79452866,31.0,2,-0.058702398
1.0485787,-4.7065015,-0.7637132,39.0,3,-0.05869779
15.099194,-67.827866,8.532073,39.0,11,-0.058695488
1.2533641,-5.63494,-0.7087922,58.0,4,-0.05869318
14.511884,-65.29706,10.59437,36.0,12,-0.05869088
1.620099,-7.2957373,-0.6538424,35.0,5,-0.058688574
2.1925504,-9.881792,-0.5304773,53.0,6,-0.05868397
3.1535907,-14.236683,-0.2545259,27.0,7,-0.05867936
0.6804573,-3.0923235,-0.8484089,31.0,0,-0.05865632
7.645991,-34.77596,0.62151515,21.0,8,-0.058654014
0.77312464,-3.5193007,-0.831869,39.0,1,-0.05865171
0.8809664,-4.0135436,-0.7987265,33.0,2,-0.058647104
1.0410229,-4.750654,-0.7702834,36.0,3,-0.058642495
1.240475,-5.670308,-0.71269196,56.0,4,-0.058637887
1.5856844,-7.2543554,-0.6496589,34.0,5,-0.05863328
2.1682634,-9.936217,-0.5329894,51.0,6,-0.05862867
3.1583595,-14.497701,-0.25899372,30.0,7,-0.058624063
0.6770132,-3.1286666,-0.85772634,35.0,0,-0.05860102
7.6204834,-35.246113,0.6294385,13.0,8,-0.05859872
0.76371557,-3.5353115,-0.8350183,34.0,1,-0.058596417
0.87233585,-4.041542,-0.8036876,31.0,2,-0.05859181
1.0256819,-4.760052,-0.771222,33.0,3,-0.0585872
13.957644,-64.8305,8.142579,32.0,11,-0.058584895
1.235285,-5.742529,-0.7212228,67.0,4,-0.058582593
1.5804487,-7.3533454,-0.6580258,35.0,5,-0.058577985
2.1520011,-10.029649,-0.537595,51.0,6,-0.058573376
3.1621835,-14.762831,-0.26353133,33.0,7,-0.05856877
0.6584506,-3.095109,-0.8478913,26.0,0,-0.058545727
7.626285,-35.878857,0.64025897,18.0,8,-0.058543425
0.7473223,-3.5188937,-0.83051926,32.0,1,-0.05854112
0.8496654,-4.004232,-0.79567355,33.0,2,-0.05853651
1.0106972,-4.7713337,-0.77247345,31.0,3,-0.058531903
1.2181077,-5.7604003,-0.722929,56.0,4,-0.058527295
1.5716573,-7.4387417,-0.66517264,27.0,5,-0.058522686
2.120689,-10.054689,-0.5385371,48.0,6,-0.05851808
3.1287584,-14.859879,-0.26506716,33.0,7,-0.05851347
0.6492241,-3.1049523,-0.84996176,27.0,0,-0.058490433
7.655168,-36.643215,0.6534181,19.0,8,-0.058488127
0.7465817,-3.576802,-0.8435665,39.0,1,-0.058485825
0.8565242,-4.1071124,-0.81551766,33.0,2,-0.058481216
0.9980626,-4.7941713,-0.77560216,30.0,3,-0.05847661
1.2024363,-5.785997,-0.72561014,48.0,4,-0.058472
1.5436562,-7.434428,-0.66430104,22.0,5,-0.058467392
2.0989552,-10.126568,-0.54199123,55.0,6,-0.058462784
3.1344042,-15.148776,-0.27002364,33.0,7,-0.058458176
0.64071447,-3.1185536,-0.85306764,27.0,0,-0.058448315
7.6072288,-37.05952,0.66036415,14.0,8,-0.058446012
0.73683226,-3.5927494,-0.84671575,40.0,1,-0.058443706
0.8425769,-4.1120005,-0.81589925,31.0,2,-0.0584391
1.0030935,-4.904068,-0.79280996,34.0,3,-0.05843449
1.1905707,-5.8310027,-0.7307286,45.0,4,-0.058429882
1.5511478,-7.603755,-0.6789432,26.0,5,-0.058425274
2.0731583,-10.180803,-0.54450333,51.0,6,-0.058420666
3.1056798,-15.264902,-0.2719085,26.0,7,-0.058416057
0.6321181,-3.1321332,-0.8561734,32.0,0,-0.05839302
7.5642066,-37.4805,0.6674149,4.0,8,-0.058390714
0.7226029,-3.5837111,-0.8440163,33.0,1,-0.058388412
0.82473236,-4.097595,-0.8124648,32.0,2,-0.058383804
0.98955137,-4.9209237,-0.7950001,37.0,3,-0.058379196
1.1884171,-5.920555,-0.7414531,45.0,4,-0.058374587
1.5324255,-7.6481943,-0.68242943,29.0,5,-0.05836998
2.0460505,-10.220916,-0.54628277,46.0,6,-0.05836537
3.0300431,-15.163877,-0.26991892,22.0,7,-0.058360763
0.6284941,-3.168321,-0.8654909,27.0,0,-0.058337722
7.804193,-39.37799,0.7007141,15.0,8,-0.05833542
0.7123605,-3.5976815,-0.84671575,34.0,1,-0.058333114
0.8157113,-4.1234183,-0.81704414,33.0,2,-0.058328506
0.9681586,-4.903031,-0.7915585,30.0,3,-0.058323897
1.1654406,-5.9129815,-0.7399908,43.0,4,-0.05831929
1.5278413,-7.7587953,-0.69184226,34.0,5,-0.05831468
2.0515776,-10.437688,-0.55748266,42.0,6,-0.058310073
3.0048096,-15.315646,-0.27243206,22.0,7,-0.05830547
0.62112343,-3.189458,-0.8706673,27.0,0,-0.058282427
7.6976285,-39.563988,0.7035414,15.0,8,-0.05828012
0.69979733,-3.6001463,-0.84671575,33.0,1,-0.05827782
0.80355847,-4.137804,-0.81933385,33.0,2,-0.05827321
0.9593077,-4.949044,-0.7984416,34.0,3,-0.058268603
1.1410232,-5.897524,-0.73755336,45.0,4,-0.058263995
1.5105796,-7.8149424,-0.69637436,37.0,5,-0.058259387
2.0242112,-10.491853,-0.5599948,48.0,6,-0.05825478
3.0054042,-15.606839,-0.27742347,26.0,7,-0.05825017
0.6121622,-3.2029915,-0.87377316,26.0,0,-0.05822713
7.708,-40.36844,0.7173637,16.0,8,-0.058224827
0.688322,-3.6083097,-0.8480655,39.0,1,-0.05822252
0.78912115,-4.144579,-0.82009715,32.0,2,-0.058217913
0.9483021,-4.9853525,-0.80376035,30.0,3,-0.05821331
1.1437559,-6.0243373,-0.7529089,45.0,4,-0.0582087
1.4804434,-7.8125963,-0.6956771,34.0,5,-0.058204092
2.0002184,-10.575738,-0.564077,54.0,6,-0.058199484
2.9702156,-15.71941,-0.2792385,30.0,7,-0.058194876
0.5961501,-3.1824281,-0.8675615,27.0,0,-0.058171835
7.629509,-40.767918,0.72396076,11.0,8,-0.05816953
0.67437595,-3.6069772,-0.8471657,36.0,1,-0.058167227
12.715048,-68.07366,3.6292894,6.0,9,-0.058164924
0.7746458,-4.151303,-0.8208603,30.0,2,-0.05816262
0.9253172,-4.9635496,-0.7996931,33.0,3,-0.05815801
1.1303834,-6.075327,-0.7587586,45.0,4,-0.058153402
1.4550724,-7.835599,-0.6972459,39.0,5,-0.058148794
1.9607147,-10.57907,-0.5638676,42.0,6,-0.058144186
2.9293282,-15.820641,-0.28084412,26.0,7,-0.058139578
0.59145653,-3.2225938,-0.87791425,26.0,0,-0.05811654
