x,y,z,intensity,ring,time
8.557444,-2.7343202,0.4708143,32.0,9,-0.05967859
2.8500452,-0.9106617,-0.5815858,48.0,2,-0.059676286
11.830606,-3.7824545,1.0866578,2.0,10,-0.059673984
3.1420145,-1.0051621,-0.52249116,41.0,3,-0.059671678
23.76287,-7.606555,3.0635517,18.0,11,-0.059669375
3.5257602,-1.1292832,-0.4545727,29.0,4,-0.05966707
46.036903,-14.754248,7.656842,11.0,12,-0.059664767
3.8705564,-1.2404644,-0.35559544,51.0,5,-0.05966246
39.790047,-12.759867,8.122357,18.0,13,-0.05966016
4.467224,-1.4334087,-0.24587436,44.0,6,-0.059657853
5.4221992,-1.7419217,-0.0994089,29.0,7,-0.05965325
41.007896,-13.181986,11.541777,14.0,15,-0.059650943
2.3844604,-0.7697001,-0.67137665,48.0,0,-0.059630208
6.5364585,-2.1112187,0.119898036,47.0,8,-0.0596279
2.5255647,-0.8162219,-0.6127667,50.0,1,-0.0596256
8.599157,-2.7807674,0.47364044,31.0,9,-0.059623294
2.8636613,-0.92604136,-0.5850204,50.0,2,-0.05962099
11.904531,-3.851943,1.0946761,5.0,10,-0.059618685
3.1384866,-1.0161238,-0.52249116,41.0,3,-0.059616383
3.5104663,-1.1379107,-0.45311025,37.0,4,-0.059611775
3.9003155,-1.2650319,-0.35873303,47.0,5,-0.059607167
40.051517,-12.998073,8.184943,18.0,13,-0.059604865
4.483089,-1.455779,-0.24702574,34.0,6,-0.05960256
42.857143,-13.925131,10.403536,5.0,14,-0.059600256
5.410381,-1.7589833,-0.09930419,24.0,7,-0.05959795
40.70811,-13.242579,11.470343,13.0,15,-0.05959565
2.390941,-0.78101814,-0.6739648,45.0,0,-0.05957491
6.55756,-2.1433408,0.1204216,49.0,8,-0.059572607
2.550483,-0.834119,-0.61951524,42.0,1,-0.0595703
8.585601,-2.8095243,0.4734311,31.0,9,-0.059568
2.8063004,-0.91832465,-0.5739535,37.0,2,-0.059565693
11.978111,-3.921993,1.1026944,5.0,10,-0.05956339
3.1255345,-1.0239978,-0.52092683,33.0,3,-0.05956109
24.444855,-8.013428,3.1586099,19.0,11,-0.059558783
3.4498868,-1.1315967,-0.4457981,43.0,4,-0.05955648
45.4035,-14.901573,7.5686135,11.0,12,-0.059554175
3.9581199,-1.2998327,-0.3644853,36.0,5,-0.059551872
40.046932,-13.151274,8.193338,18.0,13,-0.059549566
4.4419284,-1.4595728,-0.24503697,35.0,6,-0.059547264
40.48311,-13.310167,9.83846,23.0,14,-0.05954496
5.415605,-1.7816077,-0.09951362,27.0,7,-0.059542656
2.3825598,-0.78795624,-0.67241186,48.0,0,-0.059519615
6.572821,-2.1737528,0.12084046,49.0,8,-0.05951731
2.5568063,-0.84607786,-0.6217647,47.0,1,-0.059515007
8.617455,-2.853288,0.47573388,31.0,9,-0.059512705
2.8345976,-0.93910027,-0.580441,38.0,2,-0.0595104
13.769741,-4.564574,1.2691618,13.0,10,-0.059508096
3.155509,-1.0466406,-0.52655846,38.0,3,-0.05950579
24.390356,-8.089958,3.1551976,26.0,11,-0.05950349
3.4798286,-1.1548872,-0.4501854,34.0,4,-0.059501182
3.9346507,-1.3073587,-0.3627422,33.0,5,-0.059496574
39.78981,-13.228596,8.150598,18.0,13,-0.059494272
4.4555006,-1.4821478,-0.24608369,35.0,6,-0.059491966
40.371185,-13.437532,9.823163,23.0,14,-0.059489664
5.335356,-1.7758712,-0.09815233,21.0,7,-0.059487358
40.981247,-13.648537,11.573871,14.0,15,-0.059485056
2.3724668,-0.79381627,-0.6703414,42.0,0,-0.05946432
6.536366,-2.188306,0.12031689,45.0,8,-0.059462015
2.542601,-0.8517294,-0.6190653,53.0,1,-0.059459712
8.639638,-2.894136,0.4775133,32.0,9,-0.059457406
2.799657,-0.9383825,-0.5739535,37.0,2,-0.059455104
11.957296,-4.0101395,1.1033916,2.0,10,-0.0594528
3.1593273,-1.0601627,-0.5278099,33.0,3,-0.059450496
24.456514,-8.211523,3.167628,26.0,11,-0.05944819
3.5265856,-1.184087,-0.45676634,40.0,4,-0.059445888
44.122414,-14.823118,7.372132,10.0,12,-0.05944358
3.939506,-1.3242595,-0.36361378,47.0,5,-0.05944128
39.75455,-13.371161,8.152887,18.0,13,-0.059438974
4.4521923,-1.4983283,-0.24618836,33.0,6,-0.05943667
40.263603,-13.550201,9.807866,32.0,14,-0.059434365
5.287432,-1.7804447,-0.09738443,30.0,7,-0.059432063
39.175854,-13.199355,11.076938,12.0,15,-0.059429757
2.3643315,-0.7998221,-0.66878843,45.0,0,-0.059409022
6.5252852,-2.208687,0.12024708,52.0,8,-0.05940672
2.5545287,-0.8651571,-0.6226645,46.0,1,-0.059404414
8.541082,-2.8926582,0.47259375,26.0,9,-0.059402112
2.8076866,-0.9514419,-0.5762432,47.0,2,-0.059399806
13.094928,-4.4400315,1.2097217,8.0,10,-0.059397504
3.1277344,-1.0611141,-0.5231169,39.0,3,-0.059395198
24.438547,-8.295769,3.1688468,22.0,11,-0.059392896
3.528279,-1.1976893,-0.45749757,45.0,4,-0.05939059
40.062805,-13.607289,6.70134,8.0,12,-0.059388287
3.9879134,-1.3552667,-0.36849448,51.0,5,-0.05938598
4.4887977,-1.5272372,-0.24849114,37.0,6,-0.059381373
40.15204,-13.661049,9.79167,32.0,14,-0.05937907
5.207671,-1.7728359,-0.09602314,27.0,7,-0.05937677
39.175755,-13.344145,11.089361,25.0,15,-0.059374463
2.36715,-0.8095335,-0.6703414,41.0,0,-0.059353728
6.572793,-2.2490885,0.121259324,57.0,8,-0.059351422
2.560864,-0.87677974,-0.62491405,48.0,1,-0.05934912
8.68209,-2.974237,0.4809675,33.0,9,-0.059346814
2.8045158,-0.96074736,-0.5762432,36.0,2,-0.05934451
12.518477,-4.290915,1.1577768,5.0,10,-0.059342206
3.1316729,-1.0740436,-0.5243684,40.0,3,-0.059339903
24.615566,-8.446995,3.1954145,20.0,11,-0.059337597
3.5259545,-1.2106427,-0.4577413,48.0,4,-0.059335295
40.0599,-13.762453,6.7088494,8.0,12,-0.05933299
3.9607852,-1.3607154,-0.36640272,53.0,5,-0.059330687
4.4383807,-1.5265242,-0.24597903,31.0,6,-0.05932608
40.034084,-13.777026,9.774573,18.0,14,-0.059323777
5.2695184,-1.8144406,-0.09727971,26.0,7,-0.05932147
40.670494,-14.011915,11.526247,14.0,15,-0.05931917
2.3734381,-0.8209489,-0.6729295,46.0,0,-0.05929843
6.5365562,-2.262208,0.12073575,52.0,8,-0.059296127
2.5485806,-0.8825252,-0.6226645,45.0,1,-0.05929382
8.847164,-3.0653346,0.49070197,30.0,9,-0.05929152
2.7844496,-0.9647463,-0.5728086,39.0,2,-0.059289213
13.071932,-4.531673,1.2104189,16.0,10,-0.05928691
3.1297708,-1.0856159,-0.52468127,36.0,3,-0.059284605
24.548422,-8.519851,3.1905396,23.0,11,-0.059282303
3.4935782,-1.2131752,-0.4540852,43.0,4,-0.05928
39.978027,-13.890536,6.7032175,8.0,12,-0.059277695
3.989888,-1.3863035,-0.36954033,53.0,5,-0.059275392
4.382092,-1.5242912,-0.24315289,32.0,6,-0.059270784
39.96366,-13.9089985,9.769175,4.0,14,-0.05926848
5.261264,-1.8321657,-0.09724481,21.0,7,-0.059266176
2.370558,-0.82922876,-0.6729295,52.0,0,-0.059243135
6.52107,-2.2823687,0.12059613,47.0,8,-0.05924083
2.565716,-0.8985009,-0.6276135,65.0,1,-0.059238527
8.875993,-3.1100678,0.49290007,28.0,9,-0.05923622
2.7477143,-0.9627743,-0.5659395,35.0,2,-0.05923392
13.1049185,-4.5944133,1.214951,2.0,10,-0.059231617
3.166971,-1.1109194,-0.5315644,32.0,3,-0.05922931
24.630917,-8.644934,3.205164,6.0,11,-0.05922701
3.5211625,-1.2365443,-0.45822877,46.0,4,-0.059224702
39.94048,-14.033928,6.705095,8.0,12,-0.0592224
3.9941778,-1.4042217,-0.37041187,40.0,5,-0.059220094
40.80977,-14.347374,8.408571,20.0,13,-0.059217792
4.4445724,-1.5634372,-0.24692108,31.0,6,-0.059215486
48.705185,-17.142246,11.920607,7.0,14,-0.059213184
5.162415,-1.8179733,-0.09553447,22.0,7,-0.059210878
2.3656816,-0.83726716,-0.67241186,54.0,0,-0.05918784
6.575272,-2.3271346,0.121747985,54.0,8,-0.059185535
2.557053,-0.90550005,-0.62626374,49.0,1,-0.059183232
8.6561165,-3.0669918,0.4812815,32.0,9,-0.059180927
2.7719233,-0.9826786,-0.57166374,39.0,2,-0.059178624
14.098227,-5.0007524,1.3087306,19.0,10,-0.05917632
3.1442616,-1.1159124,-0.5284357,36.0,3,-0.059174016
24.980356,-8.86564,3.254643,10.0,11,-0.05917171
3.5112128,-1.246835,-0.45749757,39.0,4,-0.059169408
40.51295,-14.394149,6.809593,8.0,12,-0.059167102
3.9498289,-1.4041408,-0.36675134,45.0,5,-0.0591648
40.608932,-14.444221,8.378041,20.0,13,-0.059162494
4.446338,-1.5823956,-0.24733976,37.0,6,-0.05916019
40.13848,-14.29267,9.836659,4.0,14,-0.059157886
5.1673403,-1.8400071,-0.0957439,27.0,7,-0.059155583
33.999363,-12.113315,9.671033,18.0,15,-0.059153277
2.3572881,-0.84356713,-0.670859,52.0,0,-0.059132542
6.5723467,-2.3532405,0.1218527,52.0,8,-0.05913024
2.5592208,-0.9168377,-0.6276135,52.0,1,-0.059127934
8.66604,-3.104598,0.4824329,31.0,9,-0.059125632
2.82392,-1.0122219,-0.58311236,43.0,2,-0.059123326
13.034197,-4.674619,1.2114648,2.0,10,-0.059121024
3.1403472,-1.1268811,-0.5284357,33.0,3,-0.059118718
25.138264,-9.025559,3.2795043,21.0,11,-0.059116416
3.5196967,-1.2643937,-0.45920372,36.0,4,-0.05911411
40.449448,-14.530806,6.807403,26.0,12,-0.059111807
3.9486535,-1.4192675,-0.3671,45.0,5,-0.0591095
40.343967,-14.508815,8.333775,19.0,13,-0.0591072
4.412598,-1.587763,-0.24576966,39.0,6,-0.059104893
40.10118,-14.437313,9.839808,13.0,14,-0.05910259
5.200397,-1.8722581,-0.096476905,30.0,7,-0.059100285
33.98232,-12.241087,9.67828,9.0,15,-0.059097983
2.3525126,-0.8511333,-0.6703414,48.0,0,-0.059077248
6.5795503,-2.380465,0.122131936,52.0,8,-0.059074942
2.5470045,-0.92200285,-0.62536395,56.0,1,-0.05907264
8.555622,-3.098781,0.4768853,23.0,9,-0.059070334
2.8129861,-1.0193975,-0.5815858,34.0,2,-0.05906803
3.1477356,-1.1413288,-0.5303129,34.0,3,-0.059063423
25.250021,-9.160321,3.2980285,7.0,11,-0.059061117
3.5210826,-1.2780905,-0.45993495,43.0,4,-0.059058815
40.422615,-14.680676,6.8114705,8.0,12,-0.05905651
3.9380574,-1.431001,-0.36657706,41.0,5,-0.059054207
40.598244,-14.752482,8.396359,20.0,13,-0.0590519
4.4504805,-1.6180834,-0.24817713,33.0,6,-0.0590496
40.106194,-14.589534,9.852857,4.0,14,-0.059047297
5.332883,-1.9410106,-0.09905986,26.0,7,-0.05904499
33.449265,-12.1811495,9.538517,8.0,15,-0.05904269
2.3641925,-0.864236,-0.67448246,49.0,0,-0.05902195
6.5730786,-2.4041045,0.12216685,54.0,8,-0.059019648
2.5456007,-0.93155754,-0.62581384,51.0,1,-0.05901734
8.64228,-3.1643355,0.48232824,31.0,9,-0.05901504
2.815121,-1.030745,-0.5827307,39.0,2,-0.059012733
11.943203,-4.375319,1.1128045,2.0,10,-0.05901043
3.1752625,-1.1638665,-0.5356317,39.0,3,-0.059008125
25.68568,-9.419962,3.359207,21.0,11,-0.059005823
3.5110087,-1.288322,-0.45920372,36.0,4,-0.059003517
40.222775,-14.767226,6.786441,17.0,12,-0.059001215
3.9613452,-1.4543523,-0.3691917,42.0,5,-0.058998913
40.605473,-14.915771,8.408571,20.0,13,-0.058996607
4.4673014,-1.6418767,-0.24943319,34.0,6,-0.058994304
40.486668,-14.88817,9.959033,4.0,14,-0.058992
5.2622676,-1.9361376,-0.0978731,17.0,7,-0.058989696
34.36014,-12.648878,9.810795,9.0,15,-0.05898739
2.3466647,-0.8671265,-0.6703414,47.0,0,-0.058966655
6.5327616,-2.4152455,0.12157347,47.0,8,-0.05896435
2.564266,-0.9485507,-0.63121265,47.0,1,-0.058962047
8.5881,-3.1785388,0.47992074,30.0,9,-0.05895974
2.8501709,-1.0548757,-0.5907447,49.0,2,-0.05895744
3.1934083,-1.1831789,-0.5393861,49.0,3,-0.05895283
25.881584,-9.594435,3.3891866,21.0,11,-0.05895053
3.4506545,-1.2798604,-0.45189157,29.0,4,-0.058948223
49.47896,-18.361748,8.35892,14.0,12,-0.05894592
3.9823952,-1.4778755,-0.3716321,50.0,5,-0.058943614
40.73721,-15.125756,8.4467325,20.0,13,-0.058941312
4.504605,-1.6734577,-0.25184065,34.0,6,-0.058939006
40.45272,-15.036196,9.963532,19.0,14,-0.058936704
5.161763,-1.9196426,-0.09612786,32.0,7,-0.058934398
33.968147,-12.63939,9.711409,9.0,15,-0.058932096
2.332765,-0.87125707,-0.6672355,42.0,0,-0.058911357
6.5804863,-2.459034,0.12262061,52.0,8,-0.058909055
2.5609393,-0.957496,-0.63121265,47.0,1,-0.058906753
8.702856,-3.2538645,0.4869338,33.0,9,-0.058904447
2.839116,-1.0620668,-0.5892182,43.0,2,-0.058902144
12.666219,-4.740745,1.1832263,5.0,10,-0.05889984
3.1929586,-1.1957041,-0.5400118,49.0,3,-0.058897536
25.833063,-9.679148,3.3872368,14.0,11,-0.05889523
3.5205169,-1.3197701,-0.4616411,31.0,4,-0.058892928
47.793777,-17.916914,8.084221,13.0,12,-0.058890622
3.9324403,-1.4749748,-0.3674486,47.0,5,-0.05888832
4.438902,-1.6667054,-0.24849114,37.0,6,-0.05888371
40.407284,-15.18005,9.965332,19.0,14,-0.058881406
5.119802,-1.9233872,-0.09546466,27.0,7,-0.058879104
34.73979,-13.057829,9.944345,9.0,15,-0.058876798
2.336939,-0.8821236,-0.6693061,41.0,0,-0.058856063
6.506816,-2.4561255,0.12139894,49.0,8,-0.05885376
2.539519,-0.95909774,-0.62671363,42.0,1,-0.058851454
8.782992,-3.318816,0.49206272,35.0,9,-0.058849152
2.7876453,-1.0539194,-0.5792962,32.0,2,-0.058846846
12.362612,-4.6763735,1.1563823,2.0,10,-0.058844544
3.192671,-1.2076836,-0.54063755,40.0,3,-0.058842238
3.55325,-1.3454968,-0.46651587,39.0,4,-0.05883763
3.9216788,-1.4865739,-0.36692566,38.0,5,-0.05883302
40.203735,-15.239858,8.357434,20.0,13,-0.05883072
4.5192537,-1.7139962,-0.25330606,39.0,6,-0.058828413
40.484257,-15.362358,9.996825,4.0,14,-0.05882611
5.0924926,-1.9334394,-0.09508071,27.0,7,-0.058823805
34.25335,-13.011626,9.818042,9.0,15,-0.058821503
2.3358061,-0.89055645,-0.6698237,37.0,0,-0.058800768
6.5243597,-2.4888015,0.1218876,57.0,8,-0.058798462
2.5652862,-0.9790745,-0.6339121,48.0,1,-0.05879616
8.819865,-3.367979,0.49478418,28.0,9,-0.058793854
2.8593323,-1.0918728,-0.59494245,41.0,2,-0.05879155
14.345938,-5.4810495,1.3435929,11.0,10,-0.058789246
3.1736748,-1.213178,-0.53813463,46.0,3,-0.058786944
26.028013,-9.95475,3.4216042,11.0,11,-0.058784638
3.5615098,-1.362858,-0.46822205,33.0,4,-0.058782335
3.9409165,-1.5088315,-0.3691917,51.0,5,-0.058777727
40.11362,-15.366054,8.349802,20.0,13,-0.05877542
4.5001884,-1.7247574,-0.25257334,38.0,6,-0.05877312
41.34198,-15.853145,10.222225,10.0,14,-0.058770813
5.1417227,-1.9726927,-0.09612786,27.0,7,-0.05876851
34.15001,-13.108961,9.801477,18.0,15,-0.05876621
2.357921,-0.90842783,-0.6770707,34.0,0,-0.05874547
6.5473523,-2.5237875,0.12248099,45.0,8,-0.058743168
2.5582166,-0.9866207,-0.6330123,48.0,1,-0.05874086
8.617993,-3.3254066,0.4841076,30.0,9,-0.05873856
2.853672,-1.1011404,-0.59456086,36.0,2,-0.058736254
14.274675,-5.5110006,1.3387122,11.0,10,-0.05873395
3.1952183,-1.2342136,-0.5425148,49.0,3,-0.058731645
25.41725,-9.822993,3.345801,3.0,11,-0.058729343
3.5122948,-1.3580996,-0.46237233,33.0,4,-0.058727037
40.86067,-15.807801,6.939121,18.0,12,-0.058724735
3.9542072,-1.5297674,-0.3709348,47.0,5,-0.05872243
40.239166,-15.575435,8.3872,20.0,13,-0.058720127
4.525802,-1.7527175,-0.25435278,45.0,6,-0.058717825
41.16828,-15.951592,10.192982,15.0,14,-0.05871552
5.1031094,-1.978341,-0.09553447,31.0,7,-0.058713216
2.3565357,-0.9173537,-0.6775883,37.0,0,-0.058690175
6.6018567,-2.571302,0.123667754,45.0,8,-0.05868787
2.576546,-1.0040352,-0.6384111,48.0,1,-0.058685567
8.692523,-3.3873248,0.48892254,31.0,9,-0.05868326
2.8589568,-1.1146606,-0.5964689,38.0,2,-0.05868096
13.527735,-5.276963,1.2703822,5.0,10,-0.058678653
3.1872103,-1.2439232,-0.5418891,46.0,3,-0.05867635
25.45677,-9.940538,3.3555508,3.0,11,-0.05867405
3.5355084,-1.3805702,-0.4660284,36.0,4,-0.058671743
40.837467,-15.954716,6.944127,18.0,12,-0.05866944
3.9284315,-1.5355822,-0.36901742,40.0,5,-0.058667134
40.221123,-15.7301035,8.394833,20.0,13,-0.058664832
4.534537,-1.7743269,-0.25519016,33.0,6,-0.058662526
41.057087,-16.0653,10.178585,15.0,14,-0.058660224
5.2380385,-2.0506558,-0.098187245,21.0,7,-0.058657918
33.657063,-13.183282,9.685527,18.0,15,-0.058655616
2.3085327,-0.9074939,-0.66464734,27.0,0,-0.058634877
6.6640096,-2.6209931,0.12499414,52.0,8,-0.058632575
2.5822692,-1.0161418,-0.6406606,47.0,1,-0.058630273
8.720272,-3.4314904,0.49112067,30.0,9,-0.058627967
2.8388035,-1.1176622,-0.5930344,43.0,2,-0.058625665
13.702951,-5.3977356,1.2885104,19.0,10,-0.05862336
3.179392,-1.253037,-0.54126334,41.0,3,-0.058621056
25.981373,-10.244813,3.4291599,3.0,11,-0.05861875
3.5124438,-1.3850049,-0.463591,36.0,4,-0.05861645
40.78066,-16.088598,6.943501,18.0,12,-0.058614142
3.8566005,-1.5222663,-0.3627422,36.0,5,-0.05861184
4.5379148,-1.7930238,-0.2557135,38.0,6,-0.05860723
40.717228,-16.088217,10.107501,19.0,14,-0.058604926
5.1270695,-2.0268455,-0.09623257,21.0,7,-0.058602624
41.553417,-16.435385,11.973487,15.0,15,-0.058600318
2.3144884,-0.9187079,-0.6672355,31.0,0,-0.058579583
6.7389135,-2.6762912,0.12656485,54.0,8,-0.05857728
2.5553422,-1.0153446,-0.6348119,45.0,1,-0.058574975
8.718124,-3.4640763,0.491644,18.0,9,-0.058572672
2.8150136,-1.1190919,-0.5888366,39.0,2,-0.058570366
13.0222025,-5.179531,1.226107,2.0,10,-0.058568064
3.1880672,-1.2686859,-0.5434534,52.0,3,-0.05856576
26.249722,-10.45134,3.4691331,3.0,11,-0.058563456
3.4857004,-1.3878334,-0.46066615,29.0,4,-0.05856115
40.82618,-16.26322,6.9603963,9.0,12,-0.058558848
3.8570838,-1.5372598,-0.36326513,45.0,5,-0.05855654
41.454445,-16.53026,8.67494,22.0,13,-0.05855424
4.5319443,-1.8080623,-0.2557135,33.0,6,-0.058551934
40.486275,-16.152386,10.063411,34.0,14,-0.05854963
5.103605,-2.0371644,-0.095918424,25.0,7,-0.058547325
41.21163,-16.458452,11.890665,15.0,15,-0.058545023
2.3598456,-0.9457824,-0.68121177,38.0,0,-0.05852429
6.733714,-2.7001123,0.12663467,38.0,8,-0.058521982
2.5121715,-1.0078497,-0.62491405,41.0,1,-0.05851968
8.689906,-3.4862745,0.49070197,23.0,9,-0.058517374
2.8222187,-1.1328084,-0.59112626,39.0,2,-0.058515072
13.744504,-5.5196824,1.2958316,2.0,10,-0.058512766
3.1875083,-1.2807239,-0.5440791,50.0,3,-0.058510464
27.150574,-10.91446,3.5929525,24.0,11,-0.058508158
3.4829204,-1.400125,-0.46090987,29.0,4,-0.058505856
47.40272,-19.065384,8.092356,40.0,12,-0.05850355
3.8741455,-1.5589676,-0.3653569,42.0,5,-0.058501247
41.2792,-16.619246,8.649754,22.0,13,-0.05849894
4.5018396,-1.8133795,-0.25435278,31.0,6,-0.05849664
40.450558,-16.29383,10.067909,34.0,14,-0.058494333
5.2952776,-2.1340578,-0.09965324,30.0,7,-0.05849203
41.296585,-16.651375,11.931041,15.0,15,-0.058489725
2.395586,-0.9707989,-0.6925998,48.0,0,-0.058466673
6.634344,-2.689882,0.12495923,45.0,8,-0.05846437
2.5173123,-1.0211511,-0.6271635,34.0,1,-0.058462065
8.80416,-3.5714197,0.49792436,31.0,9,-0.058459762
2.8178482,-1.1436366,-0.59112626,38.0,2,-0.058457457
13.486919,-5.47647,1.2735196,5.0,10,-0.058455154
3.193548,-1.2974147,-0.5459564,49.0,3,-0.05845285
27.167313,-11.04255,3.6007519,24.0,11,-0.058450546
3.4775188,-1.4134881,-0.46090987,29.0,4,-0.05844824
40.895405,-16.630848,6.9923086,19.0,12,-0.058445938
3.8736675,-1.5760844,-0.36587983,35.0,5,-0.058443632
41.131443,-16.743574,8.632199,22.0,13,-0.05844133
4.594729,-1.8713332,-0.26000506,37.0,6,-0.058439024
40.829872,-16.62912,10.178136,10.0,14,-0.05843672
5.3296375,-2.1717303,-0.10045605,29.0,7,-0.058434416
41.20014,-16.796692,11.921724,15.0,15,-0.058432113
2.3816254,-0.9743486,-0.68949395,50.0,0,-0.05841138
6.5920763,-2.6982327,0.124330945,40.0,8,-0.058409072
2.5391598,-1.0398325,-0.6334622,44.0,1,-0.05840677
9.045483,-3.704291,0.5122644,32.0,9,-0.058404464
2.823124,-1.1566963,-0.5930344,47.0,2,-0.058402162
14.578478,-5.976097,1.3784552,24.0,10,-0.058399856
3.2020214,-1.3132447,-0.5481464,47.0,3,-0.058397554
26.97077,-11.0670185,3.5795467,20.0,11,-0.058395248
3.470976,-1.4242588,-0.46066615,34.0,4,-0.058392946
40.850994,-16.770874,6.994186,19.0,12,-0.05839064
3.8665764,-1.5881642,-0.3657055,42.0,5,-0.058388337
4.5903454,-1.8873192,-0.26010972,35.0,6,-0.05838373
41.17102,-16.927454,10.277114,15.0,14,-0.058381423
5.3057623,-2.1825452,-0.10014191,29.0,7,-0.05837912
2.3640966,-0.97634166,-0.68535286,50.0,0,-0.05835608
6.581244,-2.719314,0.12429604,52.0,8,-0.058353778
2.5356975,-1.0482469,-0.6334622,40.0,1,-0.058351472
9.063873,-3.74882,0.5140438,35.0,9,-0.05834917
2.8081846,-1.1620399,-0.5907447,34.0,2,-0.058346864
13.494486,-5.584081,1.2777032,2.0,10,-0.05834456
3.1939988,-1.3223444,-0.5475207,47.0,3,-0.058342256
27.335564,-11.322762,3.6329255,24.0,11,-0.058339953
3.471485,-1.4386461,-0.46139738,45.0,4,-0.058337647
40.839645,-16.933037,7.0023203,9.0,12,-0.058335345
3.8573287,-1.6001246,-0.3653569,47.0,5,-0.05833304
4.561595,-1.8941398,-0.25885364,46.0,6,-0.05832843
41.29706,-17.148039,10.323454,5.0,14,-0.05832613
5.274105,-2.1910791,-0.09968815,32.0,7,-0.058323827
42.47629,-17.655085,12.32548,16.0,15,-0.05832152
2.351588,-0.9812802,-0.68276465,43.0,0,-0.058300786
6.554625,-2.7364838,0.1239819,45.0,8,-0.05829848
2.5372329,-1.0597868,-0.6348119,45.0,1,-0.058296178
9.097985,-3.8020387,0.5167653,36.0,9,-0.05829387
2.8365102,-1.1859562,-0.5976138,46.0,2,-0.05829157
14.554784,-6.085413,1.3801982,19.0,10,-0.058289263
3.1854858,-1.3325175,-0.5468949,47.0,3,-0.05828696
27.409246,-11.471157,3.6482809,24.0,11,-0.058284655
3.471682,-1.45366,-0.4621286,48.0,4,-0.058282353
3.9010508,-1.6350459,-0.37006328,35.0,5,-0.058277745
4.5251536,-1.8984832,-0.2571789,33.0,6,-0.058273137
40.768505,-17.10402,10.206929,10.0,14,-0.058270834
5.2494435,-2.2034292,-0.099374,30.0,7,-0.05826853
42.52886,-17.860018,12.359645,16.0,15,-0.058266226
2.3283944,-0.98163724,-0.6770707,46.0,0,-0.058245488
6.472694,-2.7301798,0.12262061,52.0,8,-0.058243185
2.5512857,-1.076656,-0.6393109,50.0,1,-0.05824088
9.055215,-3.8213487,0.5150905,33.0,9,-0.058238577
2.8305445,-1.1950866,-0.59723216,41.0,2,-0.05823627
14.414919,-6.0891,1.3690424,19.0,10,-0.05823397
3.2024155,-1.3534119,-0.5506494,39.0,3,-0.058231667
27.414557,-11.59164,3.654618,24.0,11,-0.05822936
3.4443917,-1.4570938,-0.45920372,48.0,4,-0.05822706
40.701057,-17.217918,6.9995046,19.0,12,-0.058224753
3.825596,-1.6191432,-0.36343944,23.0,5,-0.05822245
40.80688,-17.279482,8.613881,22.0,13,-0.058220144
4.474363,-1.8955688,-0.25466678,33.0,6,-0.058217842
40.793465,-17.290596,10.228974,35.0,14,-0.058215536
5.2122626,-2.209254,-0.09881552,29.0,7,-0.058213234
42.729477,-18.119987,12.436255,17.0,15,-0.058210928
2.330286,-0.99202895,-0.6786236,47.0,0,-0.058190193
6.4599247,-2.7500625,0.1225508,52.0,8,-0.058187887
2.4885356,-1.0599108,-0.6244641,26.0,1,-0.058185585
9.030799,-3.8482368,0.51446253,31.0,9,-0.058183283
2.8389971,-1.2103494,-0.5999035,37.0,2,-0.058180977
14.31294,-6.104986,1.3613727,16.0,10,-0.058178674
3.1942756,-1.362474,-0.5500237,49.0,3,-0.05817637
27.505596,-11.737805,3.6719236,25.0,11,-0.058174066
3.434064,-1.4661694,-0.4584725,45.0,4,-0.05817176
40.791485,-17.424292,7.025473,19.0,12,-0.058169458
3.8767166,-1.6567596,-0.3688431,43.0,5,-0.058167152
40.59771,-17.3499,8.581826,21.0,13,-0.05816485
4.460706,-1.907255,-0.2542481,44.0,6,-0.058162544
41.180237,-17.615852,10.34055,5.0,14,-0.05816024
5.186135,-2.2195668,-0.09846648,34.0,7,-0.058157936
42.57007,-18.227968,12.408303,16.0,15,-0.058155634
2.3340836,-1.0028014,-0.6806941,49.0,0,-0.0581349
6.5329585,-2.8081315,0.12412152,54.0,8,-0.058132593
2.551059,-1.0970764,-0.6411105,40.0,1,-0.05813029
8.977622,-3.8608031,0.5121597,28.0,9,-0.058127984
2.7718487,-1.1925997,-0.5865469,42.0,2,-0.058125682
14.256015,-6.1366606,1.3578864,19.0,10,-0.058123376
3.1967573,-1.3767412,-0.55127513,40.0,3,-0.058121074
27.34778,-11.783473,3.6563244,12.0,11,-0.058118768
3.4653838,-1.4938642,-0.4633473,45.0,4,-0.058116466
40.88948,-17.626715,7.052379,9.0,12,-0.05811416
3.8657126,-1.6672388,-0.36832017,32.0,5,-0.058111858
40.73158,-17.575508,8.62304,22.0,13,-0.05810955
4.5016975,-1.9433962,-0.25696957,28.0,6,-0.05810725
40.732075,-17.59259,10.243371,20.0,14,-0.058104943
5.222805,-2.2557817,-0.09930419,34.0,7,-0.05810264
2.3270242,-1.0094053,-0.67965883,48.0,0,-0.0580796
6.5456243,-2.839329,0.12454037,57.0,8,-0.058077298
2.5545576,-1.1086332,-0.64291006,45.0,1,-0.058074992
8.901802,-3.8650725,0.5086009,31.0,9,-0.05807269
2.8126862,-1.2218235,-0.59608734,34.0,2,-0.058070384
14.38069,-6.249917,1.3718314,24.0,10,-0.05806808
3.1921742,-1.3873343,-0.55127513,43.0,3,-0.058065776
27.838306,-12.104441,3.7272522,13.0,11,-0.058063474
3.467692,-1.5085151,-0.46432224,43.0,4,-0.058061168
41.25516,-17.95538,7.1262164,10.0,12,-0.058058865
3.932938,-1.7125393,-0.37529263,37.0,5,-0.05805656
43.664696,-19.01314,9.25729,26.0,13,-0.058054257
4.469594,-1.947146,-0.25550416,31.0,6,-0.05805195
40.292995,-17.561718,10.147542,20.0,14,-0.05804965
5.1965685,-2.266006,-0.09895514,29.0,7,-0.058047347
40.723904,-17.766449,11.905159,30.0,15,-0.05804504
2.3254337,-1.0178909,-0.68017644,45.0,0,-0.058024306
6.511861,-2.8517318,0.12408661,52.0,8,-0.058022
2.554242,-1.1191077,-0.6438099,48.0,1,-0.058019698
8.960281,-3.9258301,0.5126831,32.0,9,-0.05801739
2.824802,-1.2382377,-0.5995219,41.0,2,-0.05801509
14.347113,-6.29197,1.3706112,27.0,10,-0.058012784
3.1583693,-1.3857697,-0.5462692,41.0,3,-0.05801048
27.83769,-12.219891,3.7328582,13.0,11,-0.058008175
3.464223,-1.5214087,-0.464566,40.0,4,-0.058005873
42.787,-18.791086,7.401541,21.0,12,-0.058003567
3.890756,-1.7095425,-0.37180638,35.0,5,-0.058001265
40.49598,-17.801788,8.598618,21.0,13,-0.057998963
4.4810524,-1.9707766,-0.25655088,33.0,6,-0.057996657
41.264214,-18.15669,10.408035,20.0,14,-0.057994355
5.2823734,-2.3243003,-0.10073529,27.0,7,-0.05799205
40.523315,-17.839128,11.863748,30.0,15,-0.057989746
2.3271675,-1.0283444,-0.6817294,44.0,0,-0.057969008
6.489565,-2.8676527,0.12384228,47.0,8,-0.057966705
2.5380404,-1.122056,-0.6406606,47.0,1,-0.0579644
8.922778,-3.9465802,0.5113223,31.0,9,-0.057962097
2.8348253,-1.2544461,-0.6025749,38.0,2,-0.05795979
13.543497,-5.9959965,1.2958316,2.0,10,-0.05795749
3.1754322,-1.4058318,-0.5500237,46.0,3,-0.057955183
27.653627,-12.248627,3.713603,8.0,11,-0.05795288
3.4391947,-1.5240414,-0.46188486,38.0,4,-0.05795058
46.11977,-20.447098,7.9903607,13.0,12,-0.057948273
3.93576,-1.7457328,-0.3766871,40.0,5,-0.05794597
40.314686,-17.88185,8.572667,21.0,13,-0.057943664
4.436155,-1.9686127,-0.25435278,23.0,6,-0.057941362
40.868935,-18.144764,10.323454,20.0,14,-0.057939056
5.3619494,-2.381689,-0.102410726,27.0,7,-0.057936754
40.616158,-18.049511,11.909301,15.0,15,-0.057934448
2.3343313,-1.040776,-0.68483526,41.0,0,-0.057913713
6.5452604,-2.9196143,0.12509885,59.0,8,-0.057911407
2.5305493,-1.1293201,-0.6397608,47.0,1,-0.057909105
8.943598,-3.9931736,0.5133111,32.0,9,-0.0579068
2.828857,-1.2630395,-0.60219324,33.0,2,-0.057904497
14.465857,-6.4618025,1.3861248,19.0,10,-0.057902195
3.195754,-1.4281913,-0.5544038,47.0,3,-0.05789989
27.601643,-12.341031,3.7123842,17.0,11,-0.057897586
3.4447265,-1.5409006,-0.4633473,43.0,4,-0.05789528
45.554073,-20.386864,7.9046345,12.0,12,-0.05789298
3.9769218,-1.7806293,-0.3812192,33.0,5,-0.057890672
42.344902,-18.95953,9.018397,25.0,13,-0.05788837
4.491229,-2.0118468,-0.25791162,34.0,6,-0.057886064
40.805347,-18.287312,10.323454,20.0,14,-0.05788376
5.3207583,-2.3856647,-0.10178243,29.0,7,-0.057881456
41.310833,-18.53117,12.131884,16.0,15,-0.057879154
2.326978,-1.0477387,-0.6838,43.0,0,-0.05785842
6.5897307,-2.967074,0.12614599,54.0,8,-0.057856113
2.5354757,-1.1421484,-0.6420103,45.0,1,-0.05785381
8.935067,-4.02683,0.5136251,31.0,9,-0.057851505
2.8259985,-1.2742062,-0.6025749,39.0,2,-0.057849202
14.689074,-6.626199,1.4098313,20.0,10,-0.057846896
3.190498,-1.4398947,-0.5544038,49.0,3,-0.057844594
28.273094,-12.7598505,3.808661,9.0,11,-0.05784229
3.4320898,-1.5496478,-0.46237233,43.0,4,-0.057839986
3.9488955,-1.7846544,-0.3791275,38.0,5,-0.057835378
4.507482,-2.038996,-0.25927237,44.0,6,-0.05783077
40.787758,-18.459248,10.336051,15.0,14,-0.057828464
5.347013,-2.4198887,-0.102445625,29.0,7,-0.05782616
44.114475,-19.97409,12.975635,19.0,15,-0.057823855
2.3092365,-1.0494605,-0.67965883,44.0,0,-0.05780312
6.5970154,-2.9994829,0.12649503,54.0,8,-0.05780082
2.5294986,-1.1506269,-0.64156044,43.0,1,-0.057798512
9.039126,-4.1117487,0.5204288,32.0,9,-0.05779621
2.8215334,-1.2840631,-0.6025749,41.0,2,-0.057793904
14.596949,-6.64606,1.4032074,20.0,10,-0.057791602
3.1854522,-1.4510229,-0.5544038,45.0,3,-0.057789296
28.565733,-13.018154,3.854484,9.0,11,-0.057786994
3.435418,-1.5663344,-0.463591,42.0,4,-0.057784688
41.06459,-18.722868,7.1481175,20.0,12,-0.057782385
3.9698324,-1.8108306,-0.38174215,42.0,5,-0.05778008
4.4730844,-2.0422742,-0.25770226,34.0,6,-0.05777547
40.581272,-18.536736,10.300059,5.0,14,-0.05777317
5.3167067,-2.4285681,-0.10202677,34.0,7,-0.057770863
32.444305,-14.826773,9.5581875,8.0,15,-0.05776856
2.300291,-1.0550987,-0.67810595,40.0,0,-0.057747826
6.5034223,-2.9829926,0.12488942,47.0,8,-0.05774552
2.536296,-1.1638852,-0.6442598,43.0,1,-0.057743218
9.033794,-4.147443,0.52095217,35.0,9,-0.05774091
2.81525,-1.2930849,-0.60219324,46.0,2,-0.05773861
14.664181,-6.7385693,1.411923,23.0,10,-0.057736304
3.1770332,-1.4599288,-0.55377805,47.0,3,-0.057734
28.816397,-13.247968,3.8942134,19.0,11,-0.057731695
3.4590604,-1.5909901,-0.46749085,40.0,4,-0.057729393
3.9888244,-1.8363414,-0.38418248,50.0,5,-0.057724785
40.65316,-18.71556,8.699365,22.0,13,-0.05772248
4.4971266,-2.0713005,-0.2594817,38.0,6,-0.057720177
41.96025,-19.335062,10.666279,16.0,14,-0.057717875
5.364493,-2.4730654,-0.10310882,32.0,7,-0.05771557
2.3143125,-1.0708333,-0.6832823,39.0,0,-0.057692528
6.567372,-3.0401175,0.12632053,47.0,8,-0.057690226
2.49862,-1.1571716,-0.63571167,45.0,1,-0.05768792
9.024698,-4.18147,0.52126616,31.0,9,-0.057685617
2.8341036,-1.3131429,-0.60715425,38.0,2,-0.05768331
14.723097,-6.824866,1.419767,31.0,10,-0.05768101
3.1611652,-1.466023,-0.55190086,46.0,3,-0.057678703
28.869017,-13.394427,3.9076192,9.0,11,-0.0576764
3.4642892,-1.6080695,-0.46895328,40.0,4,-0.057674095
41.49186,-19.268684,7.2457323,10.0,12,-0.057671793
3.9896178,-1.853612,-0.38487977,45.0,5,-0.05766949
4.5242815,-2.1029816,-0.26147047,42.0,6,-0.057664882
40.291588,-18.736933,10.258668,10.0,14,-0.057662576
5.3195662,-2.474905,-0.102410726,29.0,7,-0.057660274
2.3401268,-1.0932087,-0.6920821,44.0,0,-0.057637233
6.542226,-3.0562522,0.12604128,45.0,8,-0.057634927
2.4945655,-1.1658863,-0.63571167,41.0,1,-0.057632625
8.948534,-4.184184,0.5177073,37.0,9,-0.05763032
2.8043756,-1.3118753,-0.6018116,38.0,2,-0.057628017
13.819173,-6.467492,1.3348774,2.0,10,-0.057625715
3.1557708,-1.4775995,-0.55190086,41.0,3,-0.05762341
28.89939,-13.531313,3.9180996,4.0,11,-0.057621107
3.4514642,-1.6167841,-0.46797833,38.0,4,-0.0576188
41.123848,-19.272572,7.1931705,10.0,12,-0.0576165
4.0119867,-1.8810598,-0.38766876,42.0,5,-0.057614192
4.5418553,-2.1314285,-0.26293588,46.0,6,-0.057609584
32.51927,-15.267759,8.293945,6.0,14,-0.057607282
5.3470974,-2.5104558,-0.10310882,30.0,7,-0.057604976
32.045963,-15.052367,9.486754,17.0,15,-0.057602674
2.3293068,-1.0980755,-0.6900116,42.0,0,-0.057581935
6.538215,-3.0836227,0.1261809,35.0,8,-0.057579633
2.513187,-1.185832,-0.64156044,43.0,1,-0.05757733
8.888716,-4.194087,0.5150905,25.0,9,-0.057575025
2.7909021,-1.3174659,-0.5999035,43.0,2,-0.057572722
14.945922,-7.058523,1.4460881,34.0,10,-0.057570416
3.1363056,-1.4818552,-0.5493979,40.0,3,-0.057568114
28.885492,-13.65411,3.9229746,4.0,11,-0.05756581
3.4508991,-1.6319696,-0.46870953,42.0,4,-0.057563506
3.9459636,-1.866934,-0.3819165,41.0,5,-0.057558898
4.550634,-2.154963,-0.26387793,51.0,6,-0.05755429
32.460495,-15.378679,8.292596,30.0,14,-0.057551984
5.1937294,-2.4606123,-0.10031643,26.0,7,-0.05754968
31.689474,-15.020165,9.396685,17.0,15,-0.057547376
2.3115036,-1.0995607,-0.68587047,47.0,0,-0.05752664
6.5821276,-3.131057,0.12722805,52.0,8,-0.05752434
2.521558,-1.2000215,-0.6447097,41.0,1,-0.057522032
8.962384,-4.26716,0.52021945,51.0,9,-0.05751973
2.8111007,-1.3390199,-0.6052462,34.0,2,-0.057517424
15.027311,-7.1612215,1.4563725,28.0,10,-0.057515122
3.092143,-1.4735519,-0.5425148,45.0,3,-0.057512816
29.209179,-13.925806,3.9731846,4.0,11,-0.057510514
3.4669688,-1.6536593,-0.4716344,40.0,4,-0.057508208
41.494614,-19.800808,7.2820253,10.0,12,-0.057505906
3.978978,-1.8995802,-0.3857513,45.0,5,-0.0575036
40.68908,-19.42513,8.764239,23.0,13,-0.057501297
4.532649,-2.1648765,-0.26324987,54.0,6,-0.05749899
32.692406,-15.621503,8.365029,10.0,14,-0.05749669
5.356503,-2.560661,-0.10363239,29.0,7,-0.057494383
32.173626,-15.38741,9.556117,17.0,15,-0.05749208
2.3095863,-1.1080556,-0.68638813,45.0,0,-0.057471346
6.5423136,-3.1401691,0.12666957,45.0,8,-0.05746904
2.5296507,-1.214721,-0.64785904,43.0,1,-0.057466738
9.102259,-4.372797,0.52922124,31.0,9,-0.057464432
2.8101842,-1.3500347,-0.6060094,33.0,2,-0.05746213
14.8508415,-7.1376534,1.441556,23.0,10,-0.057459824
3.0869806,-1.4843365,-0.5425148,47.0,3,-0.05745752
30.791843,-14.812493,4.1954746,5.0,11,-0.057455216
3.437922,-1.6545601,-0.46846578,45.0,4,-0.057452913
41.08352,-19.780993,7.221954,10.0,12,-0.057450607
3.9636817,-1.9084431,-0.38487977,36.0,5,-0.057448305
40.691772,-19.601124,8.779504,23.0,13,-0.057446
4.5358605,-2.1858878,-0.26387793,51.0,6,-0.057443697
32.47443,-15.656819,8.323189,23.0,14,-0.05744139
5.3169127,-2.564574,-0.10303901,26.0,7,-0.05743909
32.164955,-15.521454,9.569576,17.0,15,-0.057436787
2.3178763,-1.1220028,-0.6900116,44.0,0,-0.057416048
6.4845185,-3.1403258,0.12576205,42.0,8,-0.057413746
2.5253952,-1.2235436,-0.64785904,43.0,1,-0.05741144
8.961132,-4.343563,0.5218942,32.0,9,-0.057409137
2.8195877,-1.3666865,-0.6090624,31.0,2,-0.05740683
14.893959,-7.2224827,1.4481798,23.0,10,-0.05740453
3.0853348,-1.4968275,-0.54314053,47.0,3,-0.057402223
30.579224,-14.841878,4.1735377,5.0,11,-0.05739992
3.483911,-1.6916962,-0.47553423,46.0,4,-0.057397615
32.815994,-15.94167,5.778377,6.0,12,-0.057395313
3.9802935,-1.9335853,-0.38714582,47.0,5,-0.057393007
40.651356,-19.756777,8.78561,23.0,13,-0.057390705
4.517425,-2.1964674,-0.26324987,54.0,6,-0.057388403
32.15672,-15.642214,8.255704,30.0,14,-0.057386097
5.2755632,-2.5673676,-0.102410726,24.0,7,-0.057383794
32.03068,-15.594734,9.545764,17.0,15,-0.05738149
2.3035302,-1.1250001,-0.68690574,43.0,0,-0.057360753
6.522028,-3.1866436,0.12670447,47.0,8,-0.057358447
2.5386164,-1.2409096,-0.65235806,47.0,1,-0.057356145
8.888501,-4.34674,0.51854473,32.0,9,-0.05735384
2.8253822,-1.3816953,-0.6113521,31.0,2,-0.057351537
15.13353,-7.404017,1.4739779,21.0,10,-0.05734923
3.0960596,-1.5154041,-0.5459564,50.0,3,-0.05734693
30.862396,-15.112655,4.219361,5.0,11,-0.057344627
3.4726367,-1.701227,-0.474803,49.0,4,-0.05734232
32.655495,-16.00483,5.7599177,36.0,12,-0.05734002
3.9556286,-1.9386985,-0.3854027,45.0,5,-0.057337712
32.596867,-15.9831505,7.05688,13.0,13,-0.05733541
4.5348344,-2.2245374,-0.26471528,54.0,6,-0.057333104
31.95497,-15.68225,8.217912,37.0,14,-0.057330802
5.1660485,-2.5364134,-0.10045605,24.0,7,-0.057328496
31.9223,-15.680046,9.529718,26.0,15,-0.057326194
2.3013222,-1.133888,-0.6874234,45.0,0,-0.057305455
6.5539126,-3.23061,0.1275422,57.0,8,-0.057303153
2.5272784,-1.2463158,-0.6505585,47.0,1,-0.05730085
8.751475,-4.3176494,0.511427,37.0,9,-0.057298545
2.7906108,-1.3767825,-0.60486454,28.0,2,-0.057296243
15.161191,-7.483252,1.4792072,21.0,10,-0.057293937
3.1244037,-1.5428195,-0.55190086,46.0,3,-0.057291634
31.122696,-15.375035,4.262259,5.0,11,-0.05728933
3.4293056,-1.6948682,-0.46968448,40.0,4,-0.057287026
32.588806,-16.113468,5.7580404,36.0,12,-0.05728472
3.9559813,-1.9560269,-0.38609993,45.0,5,-0.057282418
32.45817,-16.055927,7.0389447,39.0,13,-0.057280112
4.523462,-2.238582,-0.26450595,48.0,6,-0.05727781
31.859863,-15.77381,8.207563,27.0,14,-0.057275504
5.142828,-2.5473304,-0.10017681,26.0,7,-0.0572732
31.891605,-15.803389,9.536965,17.0,15,-0.057270896
2.2904305,-1.1384747,-0.68535286,51.0,0,-0.05725016
6.59273,-3.2783983,0.12851952,57.0,8,-0.05724786
2.5298915,-1.2586019,-0.65235806,34.0,1,-0.057245553
8.757809,-4.3588505,0.5126831,33.0,9,-0.05724325
2.7840307,-1.3856405,-0.60448295,34.0,2,-0.057240944
15.249122,-7.592964,1.4903631,21.0,10,-0.057238642
3.0977817,-1.543147,-0.5481464,46.0,3,-0.057236336
32.32495,-16.109581,4.4345818,11.0,11,-0.057234034
3.5050883,-1.7475725,-0.48089647,50.0,4,-0.057231728
32.633114,-16.277384,5.7758737,6.0,12,-0.057229426
3.970524,-1.9804956,-0.38819164,51.0,5,-0.05722712
32.403683,-16.170004,7.0393257,39.0,13,-0.057224818
4.5245547,-2.2588181,-0.2650293,46.0,6,-0.05722251
32.15329,-16.059074,8.2975445,30.0,14,-0.05722021
5.287743,-2.6421351,-0.10317863,30.0,7,-0.057217903
31.85871,-15.925843,9.543694,17.0,15,-0.0572156
2.3071654,-1.1568537,-0.6915645,56.0,0,-0.057194866
6.618782,-3.3202202,0.12925252,55.0,8,-0.05719256
2.5150328,-1.2621808,-0.6496587,32.0,1,-0.057190258
8.760389,-4.3983564,0.5137298,30.0,9,-0.057187952
2.7967222,-1.4041591,-0.60829914,34.0,2,-0.05718565
14.578017,-7.3224173,1.4272624,23.0,10,-0.057183344
3.0782557,-1.5468552,-0.54564345,51.0,3,-0.05718104
32.358974,-16.267792,4.447013,18.0,11,-0.057178736
3.5149279,-1.7678244,-0.48309013,50.0,4,-0.057176434
43.389507,-21.832138,7.693135,12.0,12,-0.057174128
3.9778252,-2.0015075,-0.38958618,48.0,5,-0.057171825
32.12609,-16.171791,6.9912424,25.0,13,-0.05716952
4.516642,-2.2745981,-0.2650293,46.0,6,-0.057167217
31.949108,-16.096684,8.259303,30.0,14,-0.05716491
5.1927752,-2.6173742,-0.1015032,27.0,7,-0.05716261
32.793045,-16.536234,9.840818,9.0,15,-0.057160303
2.3326252,-1.1793158,-0.70036435,47.0,0,-0.057140112
6.666621,-3.3719351,0.13040438,57.0,8,-0.05713781
2.5125718,-1.2713938,-0.6501085,36.0,1,-0.057135504
8.799213,-4.4544444,0.51686996,33.0,9,-0.0571332
2.7955534,-1.4151989,-0.6090624,36.0,2,-0.057130896
15.150872,-7.673181,1.485831,18.0,10,-0.057128593
3.0819197,-1.5615185,-0.54720783,51.0,3,-0.057126287
32.41286,-16.429758,4.461881,18.0,11,-0.057123985
3.5055056,-1.777675,-0.48260266,63.0,4,-0.05712168
42.703823,-21.664886,7.5842566,11.0,12,-0.057119377
3.9853806,-2.021899,-0.39098063,45.0,5,-0.05711707
32.01276,-16.248026,6.978267,12.0,13,-0.05711477
4.5304446,-2.3004146,-0.26628536,46.0,6,-0.057112463
30.99557,-15.745362,8.026254,12.0,14,-0.05711016
5.2500267,-2.6681006,-0.10279468,29.0,7,-0.057107855
31.377605,-15.953213,9.431884,8.0,15,-0.057105552
2.3198895,-1.1830628,-0.69777614,46.0,0,-0.057084817
6.649467,-3.3924592,0.13029967,55.0,8,-0.05708251
2.5081186,-1.2801565,-0.6501085,39.0,1,-0.05708021
8.749813,-4.467875,0.5148812,26.0,9,-0.057077903
2.7801054,-1.4195918,-0.6067726,33.0,2,-0.0570756
15.326264,-7.8293486,1.5057026,18.0,10,-0.057073295
3.0834863,-1.5758629,-0.5484593,49.0,3,-0.057070993
32.461357,-16.59702,4.4765053,18.0,11,-0.057068687
3.501046,-1.7908047,-0.48284638,61.0,4,-0.057066385
41.748688,-21.363882,7.427822,11.0,12,-0.05706408
3.981846,-2.0376134,-0.3913293,47.0,5,-0.057061777
4.5526075,-2.3316927,-0.2680648,42.0,6,-0.05705717
30.61263,-15.685507,7.941222,25.0,14,-0.057054862
5.1961927,-2.6636055,-0.10192205,29.0,7,-0.05705256
31.31141,-16.057354,9.428778,17.0,15,-0.057050254
2.3226175,-1.1946883,-0.69984674,52.0,0,-0.05702952
6.642918,-3.4183943,0.13040438,47.0,8,-0.057027217
2.5088327,-1.2915797,-0.65145826,40.0,1,-0.05702491
9.04667,-4.659341,0.53330344,35.0,9,-0.05702261
2.7908416,-1.4373778,-0.6102072,39.0,2,-0.057020303
14.654158,-7.550624,1.4422531,5.0,10,-0.057018
3.0779667,-1.5866166,-0.5484593,51.0,3,-0.057015695
32.666107,-16.845798,4.512822,12.0,11,-0.057013392
3.4859529,-1.798464,-0.48162767,52.0,4,-0.057011086
41.723007,-21.53485,7.4365826,11.0,12,-0.057008784
3.9959545,-2.062466,-0.39342102,46.0,5,-0.05700648
41.601036,-21.48109,9.100826,25.0,13,-0.057004176
4.54799,-2.3494034,-0.26827416,36.0,6,-0.05700187
30.393229,-15.7072735,7.898482,28.0,14,-0.056999568
5.2081795,-2.6927483,-0.102340914,27.0,7,-0.056997266
31.342684,-16.211819,9.455177,25.0,15,-0.05699496
2.318433,-1.2027885,-0.69984674,51.0,0,-0.056974225
6.6664433,-3.4599857,0.13110249,52.0,8,-0.05697192
2.507768,-1.3021252,-0.65235806,40.0,1,-0.056969617
9.012626,-4.6816845,0.5322567,36.0,9,-0.05696731
2.7840648,-1.4462059,-0.60982555,33.0,2,-0.05696501
15.522277,-8.066617,1.5304549,24.0,10,-0.056962702
3.0689042,-1.5955285,-0.54783356,49.0,3,-0.0569604
32.853664,-17.087961,4.5469456,6.0,11,-0.056958094
3.4778929,-1.809705,-0.48138395,56.0,4,-0.056955792
41.833313,-21.777044,7.469747,11.0,12,-0.05695349
3.9745927,-2.069042,-0.3920265,45.0,5,-0.056951184
41.560627,-21.644314,9.108459,25.0,13,-0.05694888
4.5574737,-2.374493,-0.26932088,42.0,6,-0.056946576
30.616432,-15.958286,7.970916,25.0,14,-0.056944273
5.200522,-2.7118363,-0.10237581,30.0,7,-0.056941967
31.48801,-16.426563,9.516259,26.0,15,-0.056939665
2.310797,-1.2090826,-0.6988114,52.0,0,-0.056918927
6.6507816,-3.4813797,0.13103268,52.0,8,-0.056916624
2.5239234,-1.3217196,-0.65775687,40.0,1,-0.05691432
8.957307,-4.6927247,0.52995396,38.0,9,-0.056912016
2.791173,-1.4622928,-0.6124969,38.0,2,-0.05690971
15.550493,-8.150348,1.5360328,25.0,10,-0.056907408
3.0423224,-1.5952234,-0.5440791,49.0,3,-0.056905106
33.298332,-17.467192,4.6168985,12.0,11,-0.0569028
3.4803436,-1.8264463,-0.48260266,57.0,4,-0.056900498
41.93194,-22.014761,7.5010333,11.0,12,-0.05689819
3.9902787,-2.094943,-0.39429256,37.0,5,-0.05689589
31.525543,-16.558298,6.9217873,12.0,13,-0.056893583
4.533245,-2.3820257,-0.26837882,34.0,6,-0.05689128
30.631266,-16.102238,7.989362,34.0,14,-0.056888975
5.2069526,-2.7383502,-0.10268996,27.0,7,-0.056886673
31.58948,-16.62003,9.5644,8.0,15,-0.056884367
2.3168137,-1.222551,-0.7019173,52.0,0,-0.056863632
6.6421256,-3.5064416,0.13110249,57.0,8,-0.056861326
2.5020626,-1.321421,-0.65325785,27.0,1,-0.056859024
8.937341,-4.722097,0.5297446,40.0,9,-0.05685672
2.796467,-1.4775299,-0.6147866,41.0,2,-0.056854416
15.555416,-8.222269,1.5393447,28.0,10,-0.056852113
3.0419743,-1.6086038,-0.5450177,43.0,3,-0.056849808
33.130123,-17.526693,4.6020303,12.0,11,-0.056847505
3.4739468,-1.838584,-0.48260266,46.0,4,-0.0568452
3.974138,-2.1041977,-0.39342102,34.0,5,-0.05684059
41.51954,-21.992744,9.132882,26.0,13,-0.05683829
4.5160785,-2.3931592,-0.26785544,34.0,6,-0.056835983
41.96081,-22.245245,10.964564,11.0,14,-0.05683368
5.220328,-2.7686892,-0.10314372,22.0,7,-0.056831375
31.418642,-16.670433,9.530235,17.0,15,-0.056829073
2.3193536,-1.2342608,-0.7039878,50.0,0,-0.056808338
6.6616178,-3.54652,0.13173077,60.0,8,-0.05680603
2.5077548,-1.3356434,-0.6559573,33.0,1,-0.05680373
8.931379,-4.7589006,0.5303726,36.0,9,-0.056801423
2.8086188,-1.4965143,-0.6186028,41.0,2,-0.05679912
15.447502,-8.234344,1.5315007,27.0,10,-0.056796815
3.048542,-1.6257191,-0.54720783,31.0,3,-0.056794513
33.613434,-17.932827,4.6778336,13.0,11,-0.056792207
3.4237258,-1.8273315,-0.47650915,42.0,4,-0.056789905
3.9896169,-2.1302571,-0.39568707,34.0,5,-0.056785297
41.477158,-22.15604,9.140514,26.0,13,-0.05678299
4.4953666,-2.402319,-0.26712275,43.0,6,-0.05678069
43.613495,-23.316792,11.417615,6.0,14,-0.056778383
5.2547154,-2.8104727,-0.10401635,24.0,7,-0.05677608
31.375586,-16.788206,9.534894,17.0,15,-0.056773774
2.2997112,-1.234128,-0.6993291,49.0,0,-0.05675304
6.6580067,-3.5744817,0.13190529,55.0,8,-0.056750737
2.4996436,-1.3425448,-0.6550575,38.0,1,-0.05674843
9.016756,-4.844878,0.53644365,28.0,9,-0.05674613
2.775707,-1.4914412,-0.6124969,38.0,2,-0.056743823
15.457273,-8.3089695,1.5353355,37.0,10,-0.05674152
3.0306702,-1.6298014,-0.5450177,40.0,3,-0.056739215
34.335556,-18.472336,4.787272,6.0,11,-0.056736913
3.4295626,-1.8458571,-0.47821537,43.0,4,-0.056734607
41.639977,-22.420816,7.490396,11.0,12,-0.056732304
3.9961903,-2.1517267,-0.39708155,37.0,5,-0.05673
42.198097,-22.730837,9.316822,27.0,13,-0.056727696
4.497503,-2.4236813,-0.26775077,43.0,6,-0.05672539
31.123089,-16.779083,8.163024,26.0,14,-0.056723088
5.327594,-2.8734133,-0.10565687,22.0,7,-0.056720786
31.403502,-16.944408,9.561294,26.0,15,-0.05671848
2.3021853,-1.2458258,-0.7013996,48.0,0,-0.056697745
6.6542816,-3.6024609,0.13207981,60.0,8,-0.05669544
2.5223591,-1.366111,-0.66225594,40.0,1,-0.056693137
9.088451,-4.92231,0.5416772,40.0,9,-0.05669083
2.7808414,-1.506733,-0.6147866,39.0,2,-0.05668853
15.4369335,-8.367622,1.5362071,43.0,10,-0.056686223
3.023226,-1.6394287,-0.54470485,33.0,3,-0.05668392
34.38603,-18.654552,4.8033586,13.0,11,-0.056681614
3.442616,-1.8676323,-0.48089647,37.0,4,-0.056679312
42.676537,-23.161823,7.6906323,11.0,12,-0.056677006
4.046436,-2.1970358,-0.40283385,38.0,5,-0.056674704
4.5592113,-2.4775105,-0.27193764,55.0,6,-0.056670096
31.046728,-16.87103,8.157624,22.0,14,-0.056667794
5.233706,-2.8452196,-0.103981435,30.0,7,-0.056665488
31.40145,-17.07799,9.577858,8.0,15,-0.056663185
2.3082173,-1.2590036,-0.70450544,47.0,0,-0.056642447
6.6844277,-3.6474955,0.13291752,57.0,8,-0.056640144
2.521236,-1.3763354,-0.66315573,47.0,1,-0.05663784
9.093116,-4.9639053,0.5429333,28.0,9,-0.056635536
2.8051212,-1.5319431,-0.6212741,43.0,2,-0.05663323
15.4335785,-8.43214,1.5386475,46.0,10,-0.056630928
3.0195065,-1.6503925,-0.5450177,41.0,3,-0.056628622
34.80469,-19.031332,4.8706307,6.0,11,-0.05662632
3.4364038,-1.879038,-0.48089647,37.0,4,-0.056624018
4.0443716,-2.2133112,-0.40335676,38.0,5,-0.05661941
41.86675,-22.921373,9.277897,27.0,13,-0.056617104
4.5334535,-2.4830217,-0.27089092,40.0,6,-0.0566148
42.951355,-23.524925,11.30604,6.0,14,-0.056612495
5.3189416,-2.9144492,-0.1058663,33.0,7,-0.056610193
31.493721,-17.263746,9.62341,17.0,15,-0.056607887
2.3091083,-1.2694429,-0.7060584,46.0,0,-0.056587152
6.6197295,-3.640732,0.13187039,62.0,8,-0.056584846
2.4944623,-1.3724763,-0.65730697,41.0,1,-0.056582544
8.976,-4.940719,0.536967,30.0,9,-0.056580238
2.8034656,-1.5431303,-0.62203735,43.0,2,-0.056577936
15.541663,-8.558236,1.5522438,34.0,10,-0.056575634
3.0763044,-1.6947101,-0.55628103,30.0,3,-0.056573328
34.772686,-19.16389,4.875018,7.0,11,-0.056571025
3.4680684,-1.9121078,-0.48625872,42.0,4,-0.05656872
41.992058,-23.161741,7.5955195,11.0,12,-0.056566417
4.019564,-2.2170882,-0.40161365,33.0,5,-0.05656411
41.714878,-23.01835,9.2611065,27.0,13,-0.05656181
4.54268,-2.5076938,-0.27193764,40.0,6,-0.056559503
30.997702,-17.11871,8.175172,32.0,14,-0.0565572
5.3192377,-2.9388,-0.10607573,33.0,7,-0.056554895
42.193382,-23.320831,12.91766,18.0,15,-0.056552593
2.3114216,-1.2812418,-0.7081289,46.0,0,-0.056531858
6.619222,-3.6706052,0.13211471,60.0,8,-0.05652955
2.5015848,-1.3877927,-0.6604563,44.0,1,-0.05652725
8.923771,-4.9526367,0.5348735,33.0,9,-0.056524944
2.7877624,-1.5471904,-0.61974764,46.0,2,-0.05652264
15.600531,-8.661758,1.5611336,25.0,10,-0.056520335
3.0582817,-1.6987238,-0.5540909,30.0,3,-0.056518033
35.149788,-19.531992,4.937415,7.0,11,-0.056515727
3.473518,-1.9309536,-0.4879649,42.0,4,-0.056513425
42.021446,-23.369625,7.615544,11.0,12,-0.05651112
4.0570726,-2.2562828,-0.40614575,49.0,5,-0.056508817
4.5548406,-2.5351913,-0.27319372,46.0,6,-0.05650421
30.983725,-17.252403,8.187318,29.0,14,-0.056501903
5.253045,-2.9262094,-0.10495877,31.0,7,-0.0564996
41.605465,-23.185844,12.762367,18.0,15,-0.056497294
2.3018758,-1.2864748,-0.706576,42.0,0,-0.05647656
6.6325507,-3.7083268,0.13263829,55.0,8,-0.056474257
2.5069296,-1.4022243,-0.66315573,43.0,1,-0.05647195
8.943031,-5.004238,0.5370716,35.0,9,-0.05646965
2.778918,-1.554995,-0.6189844,47.0,2,-0.056467343
15.935292,-8.920539,1.597739,28.0,10,-0.05646504
3.0523334,-1.7093889,-0.5540909,29.0,3,-0.056462735
34.845867,-19.522614,4.9042664,7.0,11,-0.056460433
3.484073,-1.9527723,-0.49040228,38.0,4,-0.056458127
41.939613,-23.516167,7.615544,11.0,12,-0.056455825
4.0453,-2.2691882,-0.40579712,39.0,5,-0.05645352
41.662746,-23.370481,9.285529,27.0,13,-0.056451216
4.549447,-2.5530305,-0.27340308,43.0,6,-0.05644891
42.3713,-23.787388,11.218309,11.0,14,-0.05644661
5.2776694,-2.964113,-0.10565687,36.0,7,-0.056444302
41.881332,-23.531551,12.872107,18.0,15,-0.056442
2.2752678,-1.2825707,-0.69984674,40.0,0,-0.056421265
6.7380214,-3.7982292,0.13501182,55.0,8,-0.05641896
2.5054145,-1.4128811,-0.6640555,43.0,1,-0.056416657
8.934206,-5.040331,0.537595,32.0,9,-0.05641435
2.7732,-1.5651696,-0.6189844,47.0,2,-0.05641205
15.867789,-8.959292,1.594253,25.0,10,-0.056409743
3.0116484,-1.7011342,-0.54783356,30.0,3,-0.05640744
36.187897,-20.440788,5.103157,7.0,11,-0.056405134
3.4945176,-1.9746882,-0.49283966,38.0,4,-0.056402832
41.94325,-23.711023,7.631187,11.0,12,-0.056400526
3.8500545,-2.177369,-0.38697147,32.0,5,-0.056398224
4.562655,-2.5824773,-0.27476382,42.0,6,-0.056393616
41.776794,-23.655428,11.083789,23.0,14,-0.056391314
5.2672906,-2.9825172,-0.10565687,33.0,7,-0.056389008
41.778767,-23.666172,12.865895,18.0,15,-0.056386705
2.2724564,-1.2914594,-0.70036435,42.0,0,-0.056365967
6.746654,-3.8357484,0.13546558,57.0,8,-0.056363665
2.510383,-1.4278351,-0.66675496,53.0,1,-0.05636136
9.010305,-5.1248083,0.5432473,32.0,9,-0.056359056
2.777958,-1.580666,-0.6212741,47.0,2,-0.05635675
15.891829,-9.046167,1.5998307,25.0,10,-0.05635445
3.0417397,-1.7321645,-0.5544038,39.0,3,-0.056352142
36.524967,-20.808136,5.161411,15.0,11,-0.05634984
3.4820821,-1.984534,-0.49210843,47.0,4,-0.056347534
41.28701,-23.530598,7.5266886,11.0,12,-0.05634523
3.9151251,-2.2322423,-0.39429256,35.0,5,-0.05634293
4.536265,-2.588489,-0.27371708,31.0,6,-0.05633832
42.164455,-24.069693,11.208861,17.0,14,-0.056336015
5.2672677,-3.0068338,-0.1058663,31.0,7,-0.056333713
29.510061,-16.852726,9.105772,8.0,15,-0.056331407
2.293078,-1.3137896,-0.7081289,45.0,0,-0.056310672
6.754718,-3.8700287,0.13588443,65.0,8,-0.056308366
2.500562,-1.4332447,-0.6654052,56.0,1,-0.056306064
9.047807,-5.1880207,0.54659677,30.0,9,-0.05630376
2.7826412,-1.5962145,-0.6235638,43.0,2,-0.056301456
16.115906,-9.248352,1.6256288,26.0,10,-0.056299154
3.0788116,-1.7668217,-0.5622255,36.0,3,-0.056296848
36.552174,-20.984488,5.1750603,16.0,11,-0.056294546
3.496139,-2.0079339,-0.49503332,51.0,4,-0.05629224
