x,y,z,intensity,ring,time
40.963497,-16.850487,7.0154605,19.0,12,-0.0626367
3.8362627,-1.578061,-0.3629165,45.0,5,-0.0626344
41.17941,-16.947708,8.65586,22.0,13,-0.0626321
4.521024,-1.8615856,-0.25623688,34.0,6,-0.0626298
40.409634,-16.647398,10.089955,14.0,14,-0.062627494
5.2635636,-2.1694844,-0.099374,30.0,7,-0.062625185
41.200253,-16.989931,11.941393,15.0,15,-0.06262288
2.3651996,-0.97873056,-0.68587047,50.0,0,-0.06260215
6.5054393,-2.693311,0.122899845,35.0,8,-0.062599845
2.504358,-1.0373391,-0.62581384,36.0,1,-0.062597536
8.70578,-3.6060526,0.49384215,23.0,9,-0.06259523
2.800321,-1.1605036,-0.5892182,34.0,2,-0.06259293
3.1565826,-1.3094361,-0.54126334,46.0,3,-0.06258832
25.409859,-10.545896,3.3779747,10.0,11,-0.06258602
3.4631464,-1.4380242,-0.4604224,33.0,4,-0.062583715
40.859966,-16.966541,7.007326,9.0,12,-0.06258141
3.8472908,-1.598322,-0.3644853,37.0,5,-0.06257911
40.93871,-17.015995,8.617698,22.0,13,-0.0625768
4.575356,-1.9026632,-0.25969106,50.0,6,-0.0625745
41.034985,-17.072813,10.260918,10.0,14,-0.062572196
5.2914195,-2.201522,-0.100037195,30.0,7,-0.062569894
44.81057,-18.65284,13.005658,19.0,15,-0.062567584
2.3688986,-0.9899603,-0.6879411,51.0,0,-0.06254685
6.4780216,-2.7071586,0.1225508,52.0,8,-0.06254455
2.5098941,-1.0493968,-0.6280633,40.0,1,-0.062542245
8.912403,-3.7281387,0.5062981,40.0,9,-0.06253994
2.82523,-1.1823987,-0.5953241,46.0,2,-0.06253763
13.474652,-5.642096,1.2780517,8.0,10,-0.06253533
3.1813762,-1.3321035,-0.5462692,40.0,3,-0.06253303
25.949657,-10.870945,3.4545085,7.0,11,-0.062530726
3.4400508,-1.441827,-0.457985,39.0,4,-0.06252842
40.778625,-17.099897,7.0035715,19.0,12,-0.062526114
3.8471997,-1.6140543,-0.36500823,47.0,5,-0.06252381
4.5377135,-1.9046838,-0.25791162,39.0,6,-0.0625192
40.827217,-17.145414,10.223125,20.0,14,-0.0625169
5.237613,-2.200614,-0.099164575,30.0,7,-0.062514596
2.3549228,-0.9933055,-0.68483526,50.0,0,-0.062491555
6.5238028,-2.7530792,0.12359794,52.0,8,-0.062489253
2.5098064,-1.0596675,-0.6289632,40.0,1,-0.062486947
8.99199,-3.7965157,0.51153165,35.0,9,-0.062484644
2.7706544,-1.1703703,-0.5846388,29.0,2,-0.06248234
13.400812,-5.663481,1.2728225,2.0,10,-0.062480036
3.176707,-1.3432004,-0.5462692,45.0,3,-0.06247773
25.385021,-10.73872,3.384312,3.0,11,-0.062475428
3.455106,-1.4623371,-0.46066615,42.0,4,-0.062473122
40.768997,-17.255047,7.0117064,19.0,12,-0.06247082
3.8638425,-1.6361258,-0.3671,42.0,5,-0.062468514
4.5512652,-1.9290857,-0.259063,46.0,6,-0.062463906
40.792236,-17.298473,10.229424,15.0,14,-0.062461603
5.239492,-2.221874,-0.0993391,34.0,7,-0.062459297
42.491566,-18.027847,12.367928,16.0,15,-0.062456995
2.3283355,-0.99167866,-0.67810595,44.0,0,-0.06243626
6.4649634,-2.7535408,0.12265551,49.0,8,-0.062433954
2.5367553,-1.0809715,-0.63661146,48.0,1,-0.062431652
8.971334,-3.824748,0.511113,35.0,9,-0.062429346
2.8207278,-1.2031423,-0.59608734,39.0,2,-0.062427044
11.907625,-5.0814886,1.132676,2.0,10,-0.062424738
3.164968,-1.3506261,-0.5450177,47.0,3,-0.062422436
25.425947,-10.8555765,3.3945491,3.0,11,-0.06242013
3.4465868,-1.4722272,-0.4601787,50.0,4,-0.062417828
40.675823,-17.383282,7.006075,9.0,12,-0.06241552
3.8745952,-1.6566528,-0.36866876,35.0,5,-0.06241322
4.4879174,-1.9198164,-0.25581816,37.0,6,-0.06240861
40.64328,-17.394548,10.206479,35.0,14,-0.062406305
5.2169976,-2.2338529,-0.09905986,34.0,7,-0.062404003
42.542027,-18.224747,12.401056,16.0,15,-0.062401697
2.3159862,-0.99598396,-0.67551774,45.0,0,-0.06238818
6.4180903,-2.7614107,0.12195742,54.0,8,-0.06238588
2.541726,-1.0941143,-0.638861,47.0,1,-0.062383574
8.836186,-3.8054628,0.5042047,27.0,9,-0.06238127
2.7984793,-1.2052156,-0.59227115,36.0,2,-0.062378965
14.2941265,-6.1589813,1.3617213,24.0,10,-0.062376663
3.1654387,-1.3645632,-0.5459564,38.0,3,-0.062374357
25.714092,-11.090202,3.438422,3.0,11,-0.062372055
3.428409,-1.4793444,-0.4584725,43.0,4,-0.06236975
40.74967,-17.591753,7.029853,9.0,12,-0.062367447
3.7663524,-1.6259456,-0.35890734,26.0,5,-0.06236514
4.4588504,-1.9267457,-0.2545621,39.0,6,-0.062360533
40.579254,-17.543394,10.206479,20.0,14,-0.06235823
5.18308,-2.2418451,-0.09857119,35.0,7,-0.062355924
42.59196,-18.431187,12.43522,17.0,15,-0.062353622
2.3124955,-1.0040622,-0.67551774,46.0,0,-0.062332887
6.4450946,-2.799732,0.12265551,57.0,8,-0.06233058
2.4735506,-1.075017,-0.6226645,34.0,1,-0.06232828
8.771564,-3.8139846,0.5012738,28.0,9,-0.062325973
2.8122597,-1.2228053,-0.59608734,36.0,2,-0.06232367
14.265233,-6.205661,1.3610241,22.0,10,-0.062321365
3.1697123,-1.3795458,-0.5475207,55.0,3,-0.062319063
3.4341438,-1.4960597,-0.45993495,45.0,4,-0.062314454
40.735096,-17.754408,7.037987,9.0,12,-0.06231215
3.861109,-1.6828659,-0.36849448,40.0,5,-0.062309846
4.4502673,-1.9414997,-0.25445744,38.0,6,-0.062305238
40.249863,-17.568005,10.138994,5.0,14,-0.062302932
5.2082105,-2.2743287,-0.09919948,35.0,7,-0.06230063
42.474255,-18.556547,12.419692,16.0,15,-0.062298324
2.32667,-1.019884,-0.6806941,50.0,0,-0.06227759
6.4828973,-2.843094,0.12356304,54.0,8,-0.062275287
2.534026,-1.111832,-0.638861,43.0,1,-0.06227298
8.772828,-3.851002,0.50211126,30.0,9,-0.06227068
2.791795,-1.2255123,-0.5926528,41.0,2,-0.062268373
14.2434845,-6.255418,1.3610241,33.0,10,-0.06226607
3.1612604,-1.3890126,-0.5468949,42.0,3,-0.062263764
25.53791,-11.226311,3.42526,3.0,11,-0.062261462
3.4379861,-1.5120338,-0.46115363,46.0,4,-0.062259156
40.93685,-18.012648,7.0836663,9.0,12,-0.062256854
3.855211,-1.6963335,-0.36849448,35.0,5,-0.062254548
40.60165,-17.873611,8.62304,22.0,13,-0.062252246
4.437979,-1.9546069,-0.25414345,31.0,6,-0.06224994
40.20256,-17.71468,10.142593,20.0,14,-0.062247638
5.1856008,-2.2860415,-0.09892024,29.0,7,-0.062245335
42.501137,-18.745235,12.446609,17.0,15,-0.06224303
2.3107295,-1.0225271,-0.6770707,49.0,0,-0.062222295
6.504018,-2.8794682,0.12415642,57.0,8,-0.06221999
2.5390382,-1.1246167,-0.6411105,45.0,1,-0.062217686
8.777592,-3.8896933,0.5031579,31.0,9,-0.06221538
2.789295,-1.2360454,-0.5930344,37.0,2,-0.06221308
14.245241,-6.315596,1.3632902,24.0,10,-0.062210772
3.1816726,-1.4112523,-0.55127513,41.0,3,-0.06220847
26.13,-11.595593,3.5100813,3.0,11,-0.062206164
3.43813,-1.5264419,-0.46188486,45.0,4,-0.06220386
42.747627,-18.987787,7.4084244,11.0,12,-0.06220156
3.902071,-1.7332351,-0.37354952,33.0,5,-0.062199254
43.474125,-19.31957,9.247367,26.0,13,-0.06219695
4.4366045,-1.9725208,-0.25445744,35.0,6,-0.062194645
40.42893,-17.983212,10.215477,15.0,14,-0.062192343
5.1757627,-2.3033156,-0.098885335,32.0,7,-0.062190037
40.596485,-18.07472,11.907229,15.0,15,-0.062187735
2.3000903,-1.0274352,-0.6750001,44.0,0,-0.062166996
6.4592395,-2.8866518,0.123493224,42.0,8,-0.062164694
2.5457714,-1.1382455,-0.6438099,48.0,1,-0.062162388
8.822991,-3.9448667,0.50650746,35.0,9,-0.062160086
2.8136375,-1.2586008,-0.5991403,43.0,2,-0.06215778
14.36132,-6.427137,1.3765378,30.0,10,-0.062155478
3.1514862,-1.4110483,-0.5468949,46.0,3,-0.062153175
27.112938,-12.145244,3.6477935,12.0,11,-0.06215087
3.4309692,-1.5376221,-0.4616411,48.0,4,-0.062148567
42.63035,-19.105204,7.3990383,21.0,12,-0.06214626
3.8996332,-1.7484758,-0.37389815,33.0,5,-0.06214396
40.307503,-18.081095,8.587169,21.0,13,-0.062141653
4.418759,-1.9830887,-0.25382942,28.0,6,-0.06213935
41.20501,-18.50098,10.427832,15.0,14,-0.062137045
5.2209997,-2.34422,-0.09989758,29.0,7,-0.062134743
40.420017,-18.156996,11.873065,30.0,15,-0.062132437
2.3088179,-1.0410161,-0.6786236,45.0,0,-0.0621117
6.4642153,-2.9146311,0.12377247,45.0,8,-0.062109396
2.5100083,-1.1322575,-0.63571167,48.0,1,-0.062107094
8.825551,-3.9830344,0.50744945,32.0,9,-0.06210479
2.814595,-1.2708383,-0.6002851,41.0,2,-0.062102485
14.396902,-6.503475,1.3821157,27.0,10,-0.062100183
3.1503904,-1.4231176,-0.5475207,55.0,3,-0.062097877
27.117737,-12.255526,3.653887,24.0,11,-0.062095575
3.4005284,-1.5375414,-0.45822877,42.0,4,-0.06209327
45.695045,-20.670523,7.9434304,12.0,12,-0.062090967
3.9043965,-1.7670062,-0.37494397,37.0,5,-0.06208866
42.250565,-19.121265,9.014581,25.0,13,-0.06208636
4.4358115,-2.0084405,-0.25519016,30.0,6,-0.062084053
41.129234,-18.631086,10.4242325,15.0,14,-0.06208175
5.261962,-2.3847175,-0.10084001,26.0,7,-0.062079445
40.42677,-18.32989,11.893771,30.0,15,-0.062077142
2.3071113,-1.0494666,-0.67914116,41.0,0,-0.062056407
6.457642,-2.9388344,0.12384228,49.0,8,-0.0620541
2.5131347,-1.1442422,-0.63751125,45.0,1,-0.0620518
8.85592,-4.032142,0.5099616,32.0,9,-0.062049493
2.8014321,-1.2760957,-0.59837705,36.0,2,-0.06204719
14.402451,-6.563575,1.3847303,19.0,10,-0.062044885
3.1741612,-1.4472178,-0.5525266,47.0,3,-0.062042583
27.109108,-12.365762,3.658518,8.0,11,-0.062040277
3.4150057,-1.5584676,-0.46090987,45.0,4,-0.062037975
45.486073,-20.757967,7.9190264,12.0,12,-0.06203567
3.9311392,-1.7948388,-0.37808162,37.0,5,-0.062033366
4.4505725,-2.0338738,-0.2564462,34.0,6,-0.06202876
41.044453,-18.765627,10.419283,10.0,14,-0.062026452
5.2358384,-2.3938386,-0.10049096,29.0,7,-0.06202415
40.365765,-18.463848,11.893771,15.0,15,-0.062021844
2.3139682,-1.0623498,-0.68224704,41.0,0,-0.06200111
6.5078325,-2.9877658,0.12499414,52.0,8,-0.061998807
2.51641,-1.1558233,-0.6393109,45.0,1,-0.0619965
8.843605,-4.0638647,0.5100663,35.0,9,-0.0619942
2.8094468,-1.2916071,-0.60104835,42.0,2,-0.061991893
13.387516,-6.157569,1.2892077,2.0,10,-0.06198959
3.1585772,-1.4527831,-0.5506494,46.0,3,-0.061987285
27.397959,-12.607447,3.7031221,17.0,11,-0.061984982
3.409819,-1.5697838,-0.46090987,45.0,4,-0.061982676
40.906277,-18.84074,7.1330996,20.0,12,-0.061980374
3.928469,-1.8102177,-0.37843022,38.0,5,-0.06197807
4.5091,-2.0787237,-0.2602144,48.0,6,-0.06197346
40.679394,-18.762068,10.34235,5.0,14,-0.061971158
5.354551,-2.4707482,-0.10293429,27.0,7,-0.061968856
40.441387,-18.669415,11.935182,15.0,15,-0.06196655
2.2929027,-1.061899,-0.6770707,42.0,0,-0.061945815
6.471962,-2.9986944,0.12450547,52.0,8,-0.06194351
2.507056,-1.1621414,-0.6379612,44.0,1,-0.061941206
8.809436,-4.0854664,0.5089149,30.0,9,-0.0619389
2.7998052,-1.2984384,-0.5999035,46.0,2,-0.0619366
14.491183,-6.7235093,1.3976295,23.0,10,-0.061934292
3.1606534,-1.4671264,-0.55190086,49.0,3,-0.06193199
27.499619,-12.770733,3.722865,8.0,11,-0.061929684
3.4205213,-1.5892047,-0.46310353,42.0,4,-0.061927382
47.64727,-22.147457,8.322001,43.0,12,-0.061925076
3.9510314,-1.8373615,-0.3812192,36.0,5,-0.061922774
4.4511123,-2.0708606,-0.2572836,33.0,6,-0.061918166
41.838005,-19.473833,10.654132,10.0,14,-0.061915863
5.2461905,-2.4429953,-0.101014525,30.0,7,-0.061913557
40.046757,-18.657091,11.837866,15.0,15,-0.061911255
2.2767453,-1.0645679,-0.6734472,39.0,0,-0.061890516
6.336465,-2.9628243,0.12209704,35.0,8,-0.061888214
2.5241659,-1.1807944,-0.64336,44.0,1,-0.06188591
8.88195,-4.1568294,0.51393914,32.0,9,-0.061883606
2.7914715,-1.3070267,-0.5991403,47.0,2,-0.0618813
3.1624098,-1.482054,-0.5531523,46.0,3,-0.061876692
27.814371,-13.035123,3.771613,9.0,11,-0.06187439
3.4419131,-1.6137753,-0.46675962,39.0,4,-0.061872087
3.982471,-1.8689172,-0.38487977,38.0,5,-0.06186748
4.490494,-2.1092381,-0.26000506,39.0,6,-0.06186287
40.203705,-18.892721,10.255519,10.0,14,-0.061860565
5.2955456,-2.4885087,-0.102131486,30.0,7,-0.061858263
2.2869923,-1.0791036,-0.6775883,37.0,0,-0.061835222
6.4774632,-3.0577345,0.12502904,45.0,8,-0.061832916
2.4828167,-1.1725619,-0.6339121,45.0,1,-0.061830614
8.868461,-4.1902084,0.5140438,31.0,9,-0.061828308
2.806418,-1.3259884,-0.60333806,39.0,2,-0.061826006
14.4967375,-6.8525763,1.4028589,23.0,10,-0.061823703
3.1322167,-1.4812609,-0.54877216,47.0,3,-0.061821397
27.809477,-13.157357,3.7774625,13.0,11,-0.061819095
3.4305923,-1.6238319,-0.4660284,40.0,4,-0.06181679
41.278244,-19.547403,7.2338433,10.0,12,-0.061814487
3.9579163,-1.8742801,-0.38313666,40.0,5,-0.06181218
4.4722757,-2.1197674,-0.25937703,37.0,6,-0.061807573
40.151596,-19.039621,10.259118,40.0,14,-0.06180527
5.2827754,-2.5061867,-0.10206167,34.0,7,-0.061802965
32.07952,-15.2256155,9.514706,8.0,15,-0.061800662
2.3233292,-1.1061808,-0.68949395,45.0,0,-0.061779927
6.4216166,-3.0588276,0.12415642,42.0,8,-0.06177762
2.4875047,-1.1854131,-0.63616157,43.0,1,-0.06177532
8.666285,-4.1317487,0.5031579,27.0,9,-0.061773013
2.7840512,-1.3273277,-0.5995219,39.0,2,-0.06177071
13.792972,-6.578911,1.3369691,19.0,10,-0.061768405
3.11633,-1.4870809,-0.5468949,43.0,3,-0.061766103
27.856531,-13.2988205,3.790137,13.0,11,-0.061763797
3.4356508,-1.64093,-0.46749085,42.0,4,-0.061761495
40.831898,-19.510818,7.167515,10.0,12,-0.06175919
3.965731,-1.8949561,-0.38453114,37.0,5,-0.061756887
40.70724,-19.459982,8.770345,23.0,13,-0.06175458
4.5044875,-2.1543236,-0.2616798,42.0,6,-0.06175228
32.37484,-15.490586,8.285848,6.0,14,-0.061749972
5.2866216,-2.5306559,-0.10230601,27.0,7,-0.06174767
31.360598,-15.018751,9.316968,8.0,15,-0.061745364
2.3194537,-1.1142839,-0.68949395,42.0,0,-0.06172463
6.2685156,-3.0127916,0.12139894,28.0,8,-0.061722327
2.4903767,-1.1974669,-0.6379612,44.0,1,-0.06172002
8.946982,-4.3039684,0.5203241,35.0,9,-0.06171772
2.7794008,-1.3370378,-0.5995219,38.0,2,-0.061715413
14.638848,-7.0452013,1.4213358,23.0,10,-0.06171311
3.1111202,-1.4979497,-0.5468949,41.0,3,-0.061710805
27.940495,-13.458866,3.80793,9.0,11,-0.061708502
3.4066546,-1.6417096,-0.46432224,38.0,4,-0.061706197
3.9303775,-1.8949435,-0.38174215,38.0,5,-0.06170159
40.621387,-19.59343,8.766529,23.0,13,-0.061699286
4.4861484,-2.1648264,-0.26105177,39.0,6,-0.06169698
40.458187,-19.532124,10.372043,10.0,14,-0.061694678
5.2417426,-2.5317004,-0.10160792,27.0,7,-0.061692372
31.248844,-15.099552,9.299368,16.0,15,-0.06169007
2.301643,-1.1156327,-0.68535286,47.0,0,-0.061669335
6.481074,-3.1428478,0.12572713,42.0,8,-0.06166703
2.500208,-1.2129575,-0.64156044,44.0,1,-0.061664727
8.901359,-4.320348,0.51854473,33.0,9,-0.06166242
2.7923787,-1.355304,-0.60333806,38.0,2,-0.06166012
3.0667827,-1.4898112,-0.5400118,47.0,3,-0.06165551
27.775507,-13.499044,3.7918432,4.0,11,-0.061653204
3.4437492,-1.6744236,-0.470172,39.0,4,-0.061650902
40.993126,-19.940569,7.2200775,10.0,12,-0.061648596
3.9488218,-1.9208527,-0.38418248,41.0,5,-0.061646294
40.65866,-19.786652,8.789426,23.0,13,-0.061643988
4.5055003,-2.1935868,-0.26262185,51.0,6,-0.061641686
32.614548,-15.886044,8.375378,24.0,14,-0.061639383
5.288599,-2.5771372,-0.10268996,30.0,7,-0.061637077
30.655901,-14.945259,9.138384,16.0,15,-0.061634775
2.28038,-1.1151732,-0.68017644,42.0,0,-0.061614037
6.403603,-3.1329362,0.124435656,47.0,8,-0.061611734
2.5134618,-1.2302446,-0.64605945,43.0,1,-0.06160943
8.830617,-4.324164,0.5152999,28.0,9,-0.061607126
2.7858672,-1.3641795,-0.6029565,32.0,2,-0.06160482
14.546364,-7.1261897,1.4171523,23.0,10,-0.061602518
3.0793014,-1.5092006,-0.54314053,45.0,3,-0.061600212
28.027653,-13.742739,3.832791,9.0,11,-0.06159791
3.4467947,-1.6908057,-0.47139066,48.0,4,-0.061595604
3.927784,-1.9276029,-0.382788,35.0,5,-0.061591
4.4978156,-2.2093008,-0.26262185,48.0,6,-0.06158639
32.00797,-15.729061,8.233659,40.0,14,-0.061584085
5.2131724,-2.562939,-0.10139848,26.0,7,-0.061581783
30.501266,-15.001871,9.107842,16.0,15,-0.061579477
2.2920656,-1.1308191,-0.68483526,40.0,0,-0.061558742
6.2330365,-3.0764985,0.12132913,33.0,8,-0.061556436
2.517889,-1.2433248,-0.64830893,45.0,1,-0.061554134
8.84233,-4.368231,0.51686996,32.0,9,-0.061551828
2.79517,-1.3808521,-0.6060094,30.0,2,-0.061549526
14.54998,-7.191047,1.4199414,17.0,10,-0.061547223
3.0598485,-1.5129359,-0.54063755,49.0,3,-0.061544918
28.760628,-14.226881,3.9397926,9.0,11,-0.061542615
3.4622211,-1.7133925,-0.47431552,48.0,4,-0.06154031
32.628162,-16.154196,5.766488,30.0,12,-0.061538007
3.942458,-1.9519099,-0.38487977,40.0,5,-0.0615357
40.741203,-20.179813,8.83751,23.0,13,-0.0615334
4.500814,-2.230308,-0.26324987,51.0,6,-0.061531093
31.928425,-15.828576,8.22736,33.0,14,-0.06152879
5.1379104,-2.5482457,-0.100107,21.0,7,-0.061526485
31.86948,-15.813215,9.532824,26.0,15,-0.061524183
2.279457,-1.1345091,-0.68224704,44.0,0,-0.061503444
6.476449,-3.224805,0.12628561,42.0,8,-0.06150114
2.504812,-1.2477617,-0.64605945,44.0,1,-0.06149884
8.7884655,-4.3779373,0.5145672,33.0,9,-0.061496533
2.799119,-1.3949791,-0.6079175,32.0,2,-0.06149423
14.474863,-7.2169003,1.4150605,17.0,10,-0.061491925
3.0722256,-1.5324247,-0.54376626,47.0,3,-0.061489623
28.927488,-14.435324,3.9695287,24.0,11,-0.061487317
3.4529681,-1.7230916,-0.47382805,46.0,4,-0.061485015
32.519627,-16.234951,5.756789,36.0,12,-0.06148271
3.9106662,-1.9531962,-0.38243937,36.0,5,-0.061480407
32.40926,-16.193989,7.0423784,26.0,13,-0.0614781
4.4965744,-2.2477918,-0.26345924,51.0,6,-0.0614758
31.839155,-15.916068,8.217912,37.0,14,-0.061473493
5.145528,-2.5733194,-0.100421146,24.0,7,-0.06147119
31.799591,-15.910168,9.527647,26.0,15,-0.061468884
2.2912219,-1.1498604,-0.68690574,46.0,0,-0.06144815
6.4764414,-3.2516475,0.12649503,47.0,8,-0.061445847
2.507626,-1.2595599,-0.64785904,43.0,1,-0.06144354
8.672168,-4.355958,0.5086009,40.0,9,-0.06144124
2.7576385,-1.3857418,-0.5999035,28.0,2,-0.061438933
14.589699,-7.334664,1.4286568,17.0,10,-0.06143663
3.0847745,-1.5514798,-0.5468949,45.0,3,-0.061434325
28.898966,-14.540986,3.9722097,4.0,11,-0.061432023
3.413543,-1.7175797,-0.469197,39.0,4,-0.061429717
32.507957,-16.364017,5.764298,24.0,12,-0.061427414
3.9379776,-1.9831805,-0.3857513,47.0,5,-0.06142511
32.315056,-16.281055,7.0336018,39.0,13,-0.061422806
4.483745,-2.2599936,-0.2631452,49.0,6,-0.0614205
31.667868,-15.96192,8.187318,13.0,14,-0.061418198
5.1476793,-2.5957708,-0.100630574,26.0,7,-0.061415892
31.670767,-15.977246,9.504871,17.0,15,-0.06141359
2.2787774,-1.1530908,-0.6843176,54.0,0,-0.061392855
6.5405555,-3.3110394,0.12796104,49.0,8,-0.06139055
2.5051742,-1.268749,-0.64830893,36.0,1,-0.061388247
8.6355295,-4.37537,0.5073448,37.0,9,-0.06138594
2.7547796,-1.3957663,-0.6002851,30.0,2,-0.06138364
14.536863,-7.3685923,1.4258679,20.0,10,-0.061381333
3.0796127,-1.5617008,-0.5468949,46.0,3,-0.06137903
28.9391,-14.6816435,3.9843965,4.0,11,-0.061376724
3.4747922,-1.7636253,-0.47845906,49.0,4,-0.061374422
3.9594524,-2.0113523,-0.3885403,51.0,5,-0.061369814
32.17162,-16.342781,7.014139,26.0,13,-0.061367508
4.481568,-2.2775643,-0.26345924,48.0,6,-0.061365206
32.08619,-16.313477,8.310142,27.0,14,-0.0613629
5.199188,-2.6445482,-0.10181734,27.0,7,-0.061360598
31.668177,-16.11486,9.520918,8.0,15,-0.061358295
2.2831385,-1.165828,-0.68690574,51.0,0,-0.061337557
6.573482,-3.3565853,0.12883367,55.0,8,-0.061335254
2.50073,-1.277486,-0.64830893,36.0,1,-0.06133295
8.664665,-4.42821,0.5099616,30.0,9,-0.061330646
2.7601337,-1.4112163,-0.6025749,29.0,2,-0.06132834
14.531044,-7.432711,1.4279597,20.0,10,-0.061326038
3.0492492,-1.5603795,-0.5425148,45.0,3,-0.061323732
29.152752,-14.918216,4.0209575,5.0,11,-0.06132143
3.4774497,-1.7802668,-0.47967777,46.0,4,-0.061319124
43.295467,-22.174482,7.7043986,12.0,12,-0.06131682
3.936449,-2.0169842,-0.38697147,40.0,5,-0.061314516
4.494516,-2.3049116,-0.26471528,42.0,6,-0.06130991
31.438402,-16.129408,8.157624,22.0,14,-0.061307605
5.1828084,-2.6590292,-0.10167772,30.0,7,-0.061305303
32.44529,-16.653145,9.771972,18.0,15,-0.061302997
2.3099694,-1.1897123,-0.69622326,46.0,0,-0.061282262
6.55047,-3.3751605,0.12862423,55.0,8,-0.061279956
2.497763,-1.2875358,-0.6487588,40.0,1,-0.061277654
8.681111,-4.4749007,0.5118457,32.0,9,-0.061275348
2.76915,-1.428041,-0.60562783,37.0,2,-0.061273046
14.8697605,-7.671569,1.4638679,21.0,10,-0.06127074
3.0578265,-1.578262,-0.5450177,55.0,3,-0.061268438
29.32012,-15.139724,4.0516686,5.0,11,-0.061266135
3.4903016,-1.8030223,-0.4823589,54.0,4,-0.06126383
42.36836,-21.886675,7.5529695,11.0,12,-0.061261527
3.9364645,-2.0343719,-0.38766876,41.0,5,-0.06125922
31.774817,-16.42831,6.95308,12.0,13,-0.06125692
4.5290194,-2.3426085,-0.26722744,51.0,6,-0.061254613
30.73634,-15.904991,7.9898114,9.0,14,-0.06125231
5.180599,-2.6807806,-0.10181734,26.0,7,-0.061250005
32.405838,-16.77607,9.777667,18.0,15,-0.061247703
2.293802,-1.1915346,-0.6925998,48.0,0,-0.061226964
6.5836053,-3.419909,0.12949686,57.0,8,-0.06122466
2.4900212,-1.2940143,-0.64785904,40.0,1,-0.06122236
8.771762,-4.5604544,0.518126,30.0,9,-0.061220054
2.7798238,-1.4458516,-0.6090624,32.0,2,-0.06121775
14.680287,-7.6388183,1.4478313,20.0,10,-0.061215445
3.0473187,-1.585658,-0.5440791,54.0,3,-0.061213143
30.407227,-15.829,4.2091236,5.0,11,-0.061210837
3.4790215,-1.8118359,-0.48162767,55.0,4,-0.061208535
41.56994,-21.658384,7.424068,11.0,12,-0.06120623
3.9699755,-2.069281,-0.39167792,45.0,5,-0.061203927
41.53566,-21.649744,9.104643,25.0,13,-0.06120162
4.5035167,-2.3483796,-0.26618072,42.0,6,-0.06119932
30.329237,-15.822057,7.8975816,15.0,14,-0.061197013
5.183619,-2.7053244,-0.10206167,34.0,7,-0.06119471
31.192865,-16.286446,9.428778,17.0,15,-0.061192404
2.312086,-1.2107854,-0.6993291,51.0,0,-0.06117167
6.5574565,-3.4354453,0.12921762,60.0,8,-0.061169367
2.4872153,-1.303603,-0.64830893,41.0,1,-0.06116706
8.883959,-4.656274,0.5256624,32.0,9,-0.06116476
2.7732754,-1.4541502,-0.6086807,39.0,2,-0.061162453
15.065973,-7.9031057,1.4884458,15.0,10,-0.06116015
3.0435145,-1.5972033,-0.544392,47.0,3,-0.061157845
30.58379,-16.056849,4.2412972,5.0,11,-0.061155543
3.4515867,-1.812892,-0.4787028,55.0,4,-0.061153237
41.539856,-21.818161,7.4315763,11.0,12,-0.061150935
3.9683826,-2.0852146,-0.39220083,41.0,5,-0.06114863
31.530188,-16.574783,6.924077,12.0,13,-0.061146326
4.498827,-2.3659449,-0.26639003,37.0,6,-0.06114402
30.268648,-15.925106,7.8962317,25.0,14,-0.06114172
5.181699,-2.7262237,-0.1022013,29.0,7,-0.061139412
31.427593,-16.541862,9.516259,17.0,15,-0.06113711
2.3146787,-1.2224574,-0.7013996,50.0,0,-0.061116375
6.583162,-3.476783,0.12995063,55.0,8,-0.06111407
2.4966629,-1.3191267,-0.65190816,37.0,1,-0.061111767
8.906498,-4.70779,0.5279652,33.0,9,-0.06110946
2.7595046,-1.459233,-0.6067726,31.0,2,-0.06110716
15.010118,-7.9407406,1.4856569,18.0,10,-0.061104853
3.0434394,-1.6100582,-0.5453306,50.0,3,-0.06110255
32.29893,-17.094185,4.4869857,6.0,11,-0.061100245
3.4385386,-1.8206124,-0.47772786,54.0,4,-0.061097942
3.9452357,-2.0906582,-0.39063203,43.0,5,-0.061093334
31.55138,-16.719698,6.940869,12.0,13,-0.06109103
4.5174255,-2.394883,-0.26796013,36.0,6,-0.061088726
30.53761,-16.196136,7.980364,31.0,14,-0.06108642
5.1332893,-2.7236745,-0.10143339,30.0,7,-0.061084118
31.492517,-16.716677,9.553529,17.0,15,-0.06108181
2.2965431,-1.2236655,-0.6972586,52.0,0,-0.06105852
6.5715275,-3.5029755,0.12998553,52.0,8,-0.06105622
2.5018966,-1.3342053,-0.65460753,36.0,1,-0.061053913
8.88307,-4.739134,0.5276512,45.0,9,-0.06105161
2.7749238,-1.4804268,-0.6113521,30.0,2,-0.061049305
14.652221,-7.8202715,1.4530605,20.0,10,-0.061047003
3.0320075,-1.6189412,-0.544392,51.0,3,-0.061044697
32.394146,-17.304129,4.50941,6.0,11,-0.061042394
3.4577844,-1.8478361,-0.48138395,57.0,4,-0.06104009
42.291637,-22.610098,7.5955195,11.0,12,-0.061037786
3.9445746,-2.1088617,-0.3913293,30.0,5,-0.06103548
41.590195,-22.244423,9.167992,26.0,13,-0.061033178
4.4853034,-2.3999615,-0.2665994,37.0,6,-0.061030872
30.42022,-16.283844,7.9659667,28.0,14,-0.06102857
5.1721525,-2.7697983,-0.102410726,29.0,7,-0.061026264
32.352753,-17.332857,9.834606,9.0,15,-0.06102396
2.2854507,-1.228017,-0.695188,52.0,0,-0.061003227
6.543408,-3.5173717,0.12967138,55.0,8,-0.06100092
2.4886425,-1.3383155,-0.65235806,27.0,1,-0.06099862
8.868232,-4.7710586,0.52775586,43.0,9,-0.060996313
2.7714682,-1.4910342,-0.6117337,41.0,2,-0.06099401
15.284496,-8.226413,1.5186017,18.0,10,-0.060991704
3.022859,-1.6276419,-0.54376626,45.0,3,-0.060989402
32.730263,-17.6308,4.5647383,12.0,11,-0.060987096
3.4443228,-1.856128,-0.480409,47.0,4,-0.060984794
3.9249127,-2.1159992,-0.3901091,32.0,5,-0.060980186
41.62979,-22.452837,9.193941,26.0,13,-0.06097788
4.464595,-2.4089644,-0.2658667,40.0,6,-0.060975578
42.876476,-23.144552,11.248902,12.0,14,-0.06097327
5.1642118,-2.7887855,-0.102445625,29.0,7,-0.06097097
31.22976,-16.871782,9.511083,17.0,15,-0.060968664
2.2947385,-1.2433497,-0.6993291,51.0,0,-0.06094793
6.557461,-3.5544853,0.13019496,50.0,8,-0.060945626
2.485669,-1.3479234,-0.65280795,34.0,1,-0.06094332
8.853279,-4.802938,0.5278605,41.0,9,-0.06094102
2.783503,-1.510061,-0.61554986,42.0,2,-0.060938712
15.297713,-8.302524,1.5227851,36.0,10,-0.06093641
3.0067432,-1.6325284,-0.5418891,45.0,3,-0.060934104
32.951107,-17.89844,4.604224,18.0,11,-0.0609318
3.385497,-1.8397051,-0.47309685,43.0,4,-0.060929496
3.926255,-2.134445,-0.39098063,35.0,5,-0.060924888
41.62015,-22.635534,9.209207,26.0,13,-0.060922585
4.454404,-2.4235795,-0.265762,48.0,6,-0.06092028
31.336184,-17.056673,8.236808,13.0,14,-0.060917977
5.2106442,-2.8373973,-0.103562586,27.0,7,-0.060915675
31.23175,-17.013962,9.529718,17.0,15,-0.06091337
2.29208,-1.2522786,-0.69984674,47.0,0,-0.060892634
6.5765977,-3.5946167,0.13082324,57.0,8,-0.06089033
2.4723995,-1.351917,-0.6505585,38.0,1,-0.060888026
8.876761,-4.855859,0.530268,31.0,9,-0.06088572
2.7627137,-1.5112884,-0.6121153,36.0,2,-0.060883418
14.041695,-7.6844172,1.4004184,2.0,10,-0.06088111
3.0114226,-1.6487055,-0.54376626,41.0,3,-0.06087881
32.9424,-18.042912,4.61178,6.0,11,-0.060876504
3.3442369,-1.8324337,-0.46822205,34.0,4,-0.0608742
42.250023,-23.159973,7.631187,11.0,12,-0.0608719
4.0043893,-2.195065,-0.39952192,34.0,5,-0.060869593
42.002224,-23.033669,9.31148,27.0,13,-0.06086729
4.4844403,-2.4602482,-0.2680648,48.0,6,-0.060864985
41.830635,-22.958572,11.016303,5.0,14,-0.060862683
5.2427764,-2.8786669,-0.1044003,26.0,7,-0.060860377
40.818436,-22.421576,12.478702,17.0,15,-0.060858075
2.297847,-1.2658646,-0.70295256,47.0,0,-0.060837336
6.6095448,-3.6426463,0.13173077,67.0,8,-0.060835034
2.4966767,-1.3765342,-0.65820676,37.0,1,-0.060832728
8.895591,-4.904554,0.53236145,30.0,9,-0.060830425
2.748826,-1.5161818,-0.6102072,41.0,2,-0.06082812
15.255078,-8.417782,1.524354,30.0,10,-0.060825817
2.9970024,-1.654434,-0.54220194,38.0,3,-0.060823515
33.242405,-18.358362,4.6627216,19.0,11,-0.06082121
3.3763714,-1.864626,-0.4735843,30.0,4,-0.060818907
4.0176277,-2.2205951,-0.40161365,41.0,5,-0.0608143
42.05901,-23.256147,9.342009,27.0,13,-0.060811993
4.5247607,-2.5029564,-0.27099562,51.0,6,-0.06080969
30.902185,-17.094124,8.153127,13.0,14,-0.060807385
5.262946,-2.912497,-0.10499368,36.0,7,-0.060805082
2.2835028,-1.2678511,-0.69984674,47.0,0,-0.06078204
6.585192,-3.6577477,0.13148643,62.0,8,-0.060779735
2.4972084,-1.3876457,-0.6595565,44.0,1,-0.060777433
8.819919,-4.901042,0.5288025,33.0,9,-0.06077513
2.779818,-1.5453209,-0.6182212,49.0,2,-0.060772825
15.24101,-8.476069,1.5257484,36.0,10,-0.060770523
3.0001304,-1.6691655,-0.54376626,43.0,3,-0.060768217
33.332245,-18.552488,4.6839266,6.0,11,-0.060765915
3.394453,-1.8893281,-0.47699666,33.0,4,-0.06076361
41.850418,-23.303211,7.5867596,11.0,12,-0.060761306
4.0032797,-2.2300274,-0.40091643,35.0,5,-0.060759
41.810165,-23.299921,9.303847,27.0,13,-0.0607567
4.5094576,-2.5140567,-0.27057692,48.0,6,-0.060754392
31.304893,-17.452715,8.274599,10.0,14,-0.06075209
5.286441,-2.9484408,-0.10565687,40.0,7,-0.060749784
41.18844,-22.981718,12.638134,17.0,15,-0.060747482
2.289401,-1.2810766,-0.70295256,47.0,0,-0.060726747
6.5573225,-3.6707737,0.13117228,62.0,8,-0.06072444
2.485792,-1.3921103,-0.65775687,43.0,1,-0.06072214
8.875939,-4.9728003,0.5331988,32.0,9,-0.060719833
2.7746782,-1.5545307,-0.6182212,43.0,2,-0.06071753
15.353599,-8.605469,1.5398676,37.0,10,-0.060715225
3.056607,-1.7138851,-0.5550295,30.0,3,-0.060712922
33.197823,-18.622131,4.67369,6.0,11,-0.060710616
3.4432337,-1.9322525,-0.4847963,39.0,4,-0.060708314
41.782604,-23.456892,7.589263,11.0,12,-0.06070601
3.9225101,-2.2030108,-0.39359534,35.0,5,-0.060703706
41.602577,-23.365376,9.274844,27.0,13,-0.0607014
4.5115433,-2.534867,-0.27120495,42.0,6,-0.060699098
30.824184,-17.326033,8.163473,6.0,14,-0.06069679
5.2708874,-2.9639351,-0.10555216,42.0,7,-0.06069449
2.283008,-1.2885095,-0.70243496,46.0,0,-0.06067145
6.5444694,-3.6936405,0.13117228,62.0,8,-0.060669146
2.4690387,-1.394072,-0.65460753,41.0,1,-0.06066684
8.788967,-4.9644613,0.5290119,42.0,9,-0.06066454
2.7655432,-1.5627581,-0.6174579,47.0,2,-0.060662232
15.412146,-8.712671,1.5489318,37.0,10,-0.06065993
3.0451462,-1.7221594,-0.5540909,29.0,3,-0.060657624
33.257027,-18.80826,4.691239,6.0,11,-0.060655322
3.4243734,-1.9374174,-0.48309013,36.0,4,-0.060653016
41.662647,-23.581192,7.5823793,11.0,12,-0.060650714
4.0136194,-2.2726464,-0.40353107,52.0,5,-0.060648408
41.564487,-23.544792,9.285529,27.0,13,-0.060646106
4.5161233,-2.5592632,-0.27204233,42.0,6,-0.0606438
30.746914,-17.431206,8.159875,32.0,14,-0.060641497
5.2431135,-2.972454,-0.10520311,33.0,7,-0.060639195
41.715954,-23.659454,12.850366,18.0,15,-0.06063689
2.283533,-1.2993369,-0.7039878,42.0,0,-0.060616154
6.584761,-3.7482693,0.13225435,60.0,8,-0.06061385
2.4740732,-1.4088984,-0.65730697,41.0,1,-0.060611546
8.748153,-4.983789,0.5276512,40.0,9,-0.06060924
2.753248,-1.5685148,-0.61593145,46.0,2,-0.060606938
15.488957,-8.827581,1.5597391,25.0,10,-0.060604632
3.0082276,-1.7151669,-0.5484593,32.0,3,-0.06060233
34.0552,-19.42474,4.8138394,13.0,11,-0.060600024
3.4603534,-1.9745511,-0.4891836,37.0,4,-0.06059772
41.58623,-23.73961,7.5842566,11.0,12,-0.060595416
4.0281563,-2.2994838,-0.40579712,41.0,5,-0.060593113
41.53319,-23.718946,9.296978,27.0,13,-0.06059081
4.5071626,-2.575012,-0.27204233,42.0,6,-0.060588505
30.68757,-17.53939,8.160324,22.0,14,-0.060586203
5.2564874,-3.0055473,-0.105691776,36.0,7,-0.060583897
41.76311,-23.888927,12.891777,18.0,15,-0.060581595
2.2655783,-1.2996103,-0.69984674,41.0,0,-0.060560856
6.653154,-3.8180113,0.13389486,60.0,8,-0.060558554
2.4775903,-1.422377,-0.6595565,43.0,1,-0.060556248
8.7428255,-5.021258,0.52838385,33.0,9,-0.060553946
2.7511609,-1.5800713,-0.6166947,47.0,2,-0.06055164
15.553066,-8.936186,1.5693263,34.0,10,-0.060549337
2.9919462,-1.7197508,-0.5465821,37.0,3,-0.06054703
34.147224,-19.635525,4.836507,6.0,11,-0.06054473
3.4603224,-1.9905773,-0.49015856,38.0,4,-0.060542427
41.43805,-23.847185,7.5723677,11.0,12,-0.06054012
3.8007953,-2.18732,-0.3836596,31.0,5,-0.06053782
42.460793,-24.44563,9.523659,29.0,13,-0.060535513
4.5171843,-2.6016939,-0.27319372,40.0,6,-0.06053321
41.626793,-23.984829,11.091437,11.0,14,-0.060530905
5.2165117,-3.0069005,-0.1050984,35.0,7,-0.060528602
29.529583,-17.028303,9.133724,16.0,15,-0.060526296
2.2543385,-1.303642,-0.69777614,41.0,0,-0.06050556
6.643248,-3.8432145,0.13396467,62.0,8,-0.060503256
2.4928498,-1.4427304,-0.6649553,53.0,1,-0.060500953
8.839323,-5.117795,0.5352922,30.0,9,-0.060498647
2.7592208,-1.5975348,-0.61974764,47.0,2,-0.060496345
15.589016,-9.029368,1.5761244,25.0,10,-0.060494043
3.0286546,-1.7549433,-0.5544038,46.0,3,-0.060491737
33.868954,-19.633146,4.806771,6.0,11,-0.060489435
3.4464843,-1.9986607,-0.4891836,43.0,4,-0.06048713
41.226406,-23.917343,7.548902,23.0,12,-0.060484827
3.836221,-2.225569,-0.38801736,33.0,5,-0.06048252
42.280117,-24.538513,9.502289,28.0,13,-0.06048022
4.499439,-2.6124318,-0.27267036,33.0,6,-0.060477912
41.962402,-24.373703,11.203462,5.0,14,-0.06047561
5.1938806,-3.0180588,-0.10485406,31.0,7,-0.060473304
29.44992,-17.119627,9.127513,16.0,15,-0.060471002
2.2631261,-1.3192868,-0.7019173,43.0,0,-0.060450267
6.695433,-3.9046614,0.13529105,67.0,8,-0.06044796
2.4877987,-1.4514232,-0.6649553,49.0,1,-0.06044566
8.904202,-5.1969433,0.54031646,30.0,9,-0.060443353
2.7536278,-1.6071565,-0.61974764,43.0,2,-0.06044105
15.5574045,-9.083728,1.5761244,18.0,10,-0.060438745
3.0446844,-1.7784572,-0.5584711,36.0,3,-0.060436442
34.142998,-19.951557,4.855519,6.0,11,-0.060434137
3.4549098,-2.0196953,-0.4913772,47.0,4,-0.060431834
41.536564,-24.29146,7.6211753,11.0,12,-0.06042953
3.8490672,-2.251016,-0.3901091,32.0,5,-0.060427226
42.089138,-24.624481,9.478628,28.0,13,-0.06042492
4.5333858,-2.6533442,-0.27528715,37.0,6,-0.060422618
43.012203,-25.184677,11.507147,12.0,14,-0.060420312
5.181589,-3.0351593,-0.104819156,28.0,7,-0.06041801
29.454987,-17.260412,9.1477,16.0,15,-0.060415704
2.2601728,-1.3281573,-0.70243496,39.0,0,-0.06039497
6.70245,-3.9401698,0.13570991,72.0,8,-0.060392667
2.4759982,-1.456147,-0.66315573,46.0,1,-0.06039036
8.94029,-5.2578297,0.5435613,31.0,9,-0.06038806
2.7395403,-1.6117811,-0.6178396,42.0,2,-0.060385752
15.491259,-9.117766,1.5726382,18.0,10,-0.06038345
3.0401602,-1.7900763,-0.558784,30.0,3,-0.060381144
3.4495494,-2.032751,-0.491621,48.0,4,-0.060376536
41.289,-24.33079,7.590514,11.0,12,-0.060374234
3.7725327,-2.2239656,-0.38313666,32.0,5,-0.060371928
41.803383,-24.653564,9.433598,28.0,13,-0.060369626
4.530977,-2.6732116,-0.27570584,39.0,6,-0.06036732
42.04128,-24.813648,11.270497,18.0,14,-0.060365018
5.15083,-3.040128,-0.1044003,24.0,7,-0.06036271
29.354334,-17.332455,9.134242,24.0,15,-0.06036041
2.273806,-1.3468686,-0.7081289,42.0,0,-0.060339674
6.665259,-3.9481063,0.13522124,67.0,8,-0.06033737
2.4745088,-1.4663364,-0.6640555,45.0,1,-0.060335066
8.949371,-5.3053,0.54523605,35.0,9,-0.06033276
2.7558496,-1.6343528,-0.6228006,49.0,2,-0.060330458
15.517598,-9.206349,1.5785649,18.0,10,-0.060328152
3.0342073,-1.800148,-0.558784,34.0,3,-0.06032585
36.29387,-21.541157,5.182129,8.0,11,-0.060323544
3.3898757,-2.012761,-0.48406506,40.0,4,-0.06032124
43.785324,-26.008158,8.066075,13.0,12,-0.060318936
3.7715979,-2.2411916,-0.3838339,31.0,5,-0.060316633
41.96781,-24.938477,9.489313,28.0,13,-0.060314327
4.530671,-2.6933253,-0.2762292,40.0,6,-0.060312025
43.12284,-25.645206,11.583179,13.0,14,-0.060309723
5.1934614,-3.089785,-0.10548234,21.0,7,-0.060307417
32.293407,-19.22019,10.069614,9.0,15,-0.060305115
2.2660096,-1.3524214,-0.70709366,43.0,0,-0.060284376
6.6651726,-3.97955,0.13550049,65.0,8,-0.060282074
2.4861052,-1.484958,-0.66855454,53.0,1,-0.060279768
9.013094,-5.3856826,0.5502603,38.0,9,-0.060277466
2.7622118,-1.6505316,-0.6254719,54.0,2,-0.06027516
15.890576,-9.499017,1.6197023,26.0,10,-0.060272858
3.0584214,-1.8289778,-0.56441563,45.0,3,-0.06027055
36.27467,-21.701342,5.1901717,16.0,11,-0.06026825
3.3777194,-2.0215235,-0.48333386,39.0,4,-0.060265943
3.7705884,-2.2584386,-0.38453114,33.0,5,-0.06026134
4.5246687,-2.7111769,-0.27643853,39.0,6,-0.06025673
42.616875,-25.546097,11.471154,12.0,14,-0.060254425
5.1397705,-3.0821843,-0.10460973,26.0,7,-0.060252123
31.84841,-19.106205,9.951592,19.0,15,-0.060249817
2.2610373,-1.3607177,-0.70709366,44.0,0,-0.06022908
6.7129216,-4.0399117,0.13675706,62.0,8,-0.060226776
2.4859152,-1.4966426,-0.66990423,50.0,1,-0.060224473
8.971997,-5.403715,0.5488996,33.0,9,-0.060222168
2.7460542,-1.6545655,-0.62318224,49.0,2,-0.060219865
15.8147,-9.53251,1.6155188,19.0,10,-0.060217563
3.0533888,-1.8411952,-0.5647285,36.0,3,-0.060215257
36.292194,-21.884214,5.2035775,16.0,11,-0.060212955
3.3910398,-2.045606,-0.48625872,45.0,4,-0.06021065
3.878667,-2.3416085,-0.39638433,35.0,5,-0.06020604
42.399998,-25.6076,9.628222,29.0,13,-0.06020374
4.5420527,-2.744268,-0.2781133,42.0,6,-0.060201433
31.740868,-19.185112,8.562537,25.0,14,-0.06019913
5.1717644,-3.1259663,-0.10548234,22.0,7,-0.060196824
31.712093,-19.175278,9.929852,9.0,15,-0.060194522
2.267836,-1.3756154,-0.7107171,46.0,0,-0.060173783
6.6826835,-4.055152,0.13644291,57.0,8,-0.06017148
2.4687524,-1.4986652,-0.66675496,53.0,1,-0.06016918
8.947958,-5.431891,0.54858553,40.0,9,-0.060166873
2.7285156,-1.6570073,-0.6205109,49.0,2,-0.06016457
15.56167,-9.4542055,1.5930327,15.0,10,-0.060162265
3.0469434,-1.8518422,-0.5647285,38.0,3,-0.060159963
36.472954,-22.175901,5.241113,16.0,11,-0.060157657
3.4021754,-2.0693684,-0.48893982,47.0,4,-0.060155354
42.11315,-25.615265,7.807019,12.0,12,-0.06015305
3.8977022,-2.371704,-0.39917332,35.0,5,-0.060150746
4.5546217,-2.7736104,-0.27947402,47.0,6,-0.060146138
31.766905,-19.35257,8.587731,10.0,14,-0.060143832
5.1556983,-3.1408792,-0.10537763,26.0,7,-0.06014153
42.179543,-25.706099,13.235489,20.0,15,-0.060139224
2.2745583,-1.3905767,-0.7143406,47.0,0,-0.06011849
6.7545047,-4.129442,0.13818815,62.0,8,-0.060116187
2.4504693,-1.4987094,-0.66315573,47.0,1,-0.06011388
8.986867,-5.4985323,0.55214435,38.0,9,-0.06011158
2.747832,-1.6818953,-0.6262351,42.0,2,-0.060109273
15.584647,-9.542803,1.598785,18.0,10,-0.06010697
3.044155,-1.8639991,-0.5653542,31.0,3,-0.060104664
36.368744,-22.278063,5.236726,16.0,11,-0.060102362
3.373291,-2.0671554,-0.48577127,39.0,4,-0.060100056
3.9114797,-2.3988361,-0.40143937,42.0,5,-0.060095448
4.5113516,-2.7678094,-0.2773806,43.0,6,-0.06009084
31.534807,-19.35485,8.542292,29.0,14,-0.060088538
5.269103,-3.2352386,-0.10792568,21.0,7,-0.06008623
42.08626,-25.851154,13.234453,20.0,15,-0.06008393
2.2781587,-1.4031773,-0.7169288,46.0,0,-0.060063194
6.738347,-4.1519465,0.13815325,62.0,8,-0.06006089
2.461812,-1.5174799,-0.66765475,53.0,1,-0.060058586
8.9778185,-5.536159,0.5527724,42.0,9,-0.06005628
2.7138314,-1.6734803,-0.61974764,37.0,2,-0.060053978
15.600396,-9.62372,1.6036657,19.0,10,-0.060051672
3.0460348,-1.8798009,-0.56691855,40.0,3,-0.06004937
36.694458,-22.65411,5.2949796,16.0,11,-0.060047064
3.3930776,-2.0956073,-0.48967105,48.0,4,-0.06004476
3.9306226,-2.4285498,-0.4042283,42.0,5,-0.060040154
4.53224,-2.8024478,-0.2792647,47.0,6,-0.060035545
31.5118,-19.492487,8.55444,32.0,14,-0.06003324
5.3223944,-3.293598,-0.109252065,35.0,7,-0.060030937
2.2666814,-1.4070457,-0.71485823,45.0,0,-0.060007896
6.701729,-4.1617274,0.13769948,60.0,8,-0.060005594
2.4713976,-1.5353189,-0.6717038,50.0,1,-0.060003288
9.050043,-5.624393,0.5584247,36.0,9,-0.060000986
2.722981,-1.6922698,-0.62318224,41.0,2,-0.05999868
16.067549,-9.989498,1.6552618,22.0,10,-0.059996378
3.0461643,-1.8945954,-0.5681701,41.0,3,-0.05999407
36.70112,-22.835546,5.3074102,16.0,11,-0.05999177
3.4059658,-2.1200268,-0.49259594,38.0,4,-0.059989464
42.65756,-26.56232,7.9590735,13.0,12,-0.05998716
3.9170475,-2.4390957,-0.40370542,33.0,5,-0.059984855
42.542812,-26.501179,9.742707,30.0,13,-0.059982553
4.5190396,-2.816138,-0.27905536,43.0,6,-0.05998025
31.569244,-19.680717,8.588631,14.0,14,-0.059977945
5.2718396,-3.2878175,-0.10844925,33.0,7,-0.059975643
29.35972,-18.317501,9.272451,8.0,15,-0.059973337
2.2666693,-1.4180229,-0.7164112,48.0,0,-0.0599526
6.6905513,-4.187218,0.1377693,70.0,8,-0.059950296
2.4676752,-1.5449705,-0.6721538,47.0,1,-0.059947994
9.04051,-5.6623096,0.5590527,42.0,9,-0.059945688
2.7237124,-1.7059327,-0.6247087,41.0,2,-0.059943385
16.113623,-10.096303,1.6636288,22.0,10,-0.05994108
3.0395324,-1.9052169,-0.5681701,40.0,3,-0.059938777
36.35882,-22.799004,5.2693872,8.0,11,-0.059936475
3.410316,-2.1392868,-0.4943021,41.0,4,-0.05993417
3.8713822,-2.429455,-0.39987054,45.0,5,-0.05992956
42.58307,-26.733027,9.773237,30.0,13,-0.05992726
4.5362434,-2.8488915,-0.2807301,50.0,6,-0.059924953
31.995384,-20.101805,8.723602,22.0,14,-0.05992265
5.3602214,-3.368982,-0.110508636,35.0,7,-0.059920345
29.277609,-18.408562,9.266757,16.0,15,-0.059918042
2.2617059,-1.4259264,-0.7164112,49.0,0,-0.059897304
6.647141,-4.1924114,0.13717592,65.0,8,-0.059895
2.4705079,-1.5587742,-0.67440325,48.0,1,-0.0598927
8.991979,-5.6757097,0.5572733,32.0,9,-0.059890393
2.7293625,-1.7227653,-0.62738,46.0,2,-0.05988809
15.940139,-10.06526,1.6493353,19.0,10,-0.059885785
3.0228431,-1.9094855,-0.5662928,41.0,3,-0.059883483
37.01067,-23.388132,5.375657,8.0,11,-0.059881177
3.387726,-2.1416311,-0.49210843,38.0,4,-0.059878875
43.913555,-27.77172,8.229392,14.0,12,-0.05987657
3.8881366,-2.4589274,-0.4024852,44.0,5,-0.059874266
4.519521,-2.8604355,-0.2803114,35.0,6,-0.05986966
31.78178,-20.122677,8.684461,7.0,14,-0.059867352
5.3906627,-3.4144232,-0.11138126,30.0,7,-0.05986505
29.231123,-18.522024,9.272451,8.0,15,-0.059862744
2.2567146,-1.4338127,-0.7164112,47.0,0,-0.05984201
6.693221,-4.2542043,0.13843249,67.0,8,-0.059839707
2.4617627,-1.5652972,-0.67350346,50.0,1,-0.0598374
8.982223,-5.7134953,0.5579014,33.0,9,-0.0598351
2.7432103,-1.7449266,-0.63195944,49.0,2,-0.059832793
15.810777,-10.06094,1.6395737,19.0,10,-0.05983049
3.036156,-1.9327548,-0.57004726,46.0,3,-0.059828185
37.176617,-23.674992,5.4117303,8.0,11,-0.059825882
3.4137137,-2.1747756,-0.4969832,33.0,4,-0.059823576
43.793022,-27.909979,8.225013,14.0,12,-0.059821274
3.9181736,-2.4971132,-0.40649435,34.0,5,-0.05981897
4.5330834,-2.8912306,-0.28177682,47.0,6,-0.05981436
31.630848,-20.18213,8.6624155,25.0,14,-0.059812058
5.409051,-3.4525852,-0.11200955,28.0,7,-0.05980975
29.430065,-18.792374,9.356309,8.0,15,-0.05980745
2.2614577,-1.4479315,-0.719517,46.0,0,-0.059786715
6.7237954,-4.3066635,0.13937493,62.0,8,-0.05978441
2.4644878,-1.5791376,-0.675753,53.0,1,-0.059782106
8.9857645,-5.759904,0.55936676,42.0,9,-0.0597798
2.72388,-1.7460158,-0.6289065,47.0,2,-0.0597775
15.899673,-10.195655,1.6524729,22.0,10,-0.059775192
3.0343788,-1.9465412,-0.57098585,50.0,3,-0.05977289
37.167255,-23.851795,5.4224553,8.0,11,-0.059770584
3.4328294,-2.2038374,-0.50088304,41.0,4,-0.059768282
3.8943458,-2.5010853,-0.40492558,35.0,5,-0.059763674
42.251244,-27.145645,9.761789,30.0,13,-0.059761368
4.4910407,-2.8865187,-0.27978805,37.0,6,-0.059759066
32.01589,-20.585413,8.787488,15.0,14,-0.05975676
5.402012,-3.4746907,-0.11211426,36.0,7,-0.059754457
29.398405,-18.916945,9.367179,17.0,15,-0.05975215
2.258013,-1.4568639,-0.7200346,47.0,0,-0.059734583
6.792728,-4.3843293,0.14112017,60.0,8,-0.05973228
2.4835174,-1.6035868,-0.6825015,50.0,1,-0.059729975
8.967282,-5.7923183,0.5594714,36.0,9,-0.059727672
2.7144704,-1.7533824,-0.62814325,47.0,2,-0.059725367
15.823824,-10.225142,1.6482893,26.0,10,-0.059723064
3.0342014,-1.9614109,-0.5722374,49.0,3,-0.05972076
37.600513,-24.315557,5.498014,9.0,11,-0.059718456
3.3884478,-2.1920848,-0.49552077,43.0,4,-0.05971615
41.898926,-27.116005,7.9046345,12.0,12,-0.059713848
3.8989725,-2.5233238,-0.40632007,42.0,5,-0.059711542
4.5094357,-2.9206352,-0.28156745,39.0,6,-0.059706934
31.554596,-20.444845,8.680411,14.0,14,-0.05970463
5.416699,-3.5109289,-0.11267274,38.0,7,-0.059702326
29.33057,-19.018394,9.366662,8.0,15,-0.059700023
2.2480547,-1.4615779,-0.71848166,45.0,0,-0.05967929
6.794145,-4.418916,0.1414692,67.0,8,-0.059676982
2.4632037,-1.6026809,-0.6784524,44.0,1,-0.05967468
9.022334,-5.8726134,0.5641817,31.0,9,-0.059672374
2.7149153,-1.7671312,-0.6296697,46.0,2,-0.059670072
15.844804,-10.317279,1.654216,22.0,10,-0.059667766
3.0223706,-1.9687556,-0.5712987,47.0,3,-0.059665464
3.4539452,-2.2515984,-0.5062453,48.0,4,-0.059660856
41.827183,-27.277205,7.9090147,12.0,12,-0.05965855
3.8801274,-2.5303886,-0.40527418,41.0,5,-0.059656247
4.517612,-2.9483657,-0.28271887,42.0,6,-0.05965164
31.146898,-20.335407,8.587731,25.0,14,-0.059649333
5.392691,-3.5221608,-0.112428404,34.0,7,-0.05964703
29.259153,-19.117495,9.3651085,25.0,15,-0.059644725
2.2477872,-1.4725922,-0.7200346,44.0,0,-0.05962399
6.8188195,-4.4689116,0.14230692,62.0,8,-0.059621688
2.4787805,-1.6251597,-0.6843011,50.0,1,-0.059619382
8.898234,-5.8361583,0.557692,32.0,9,-0.05961708
2.7267885,-1.7884413,-0.63386756,41.0,2,-0.059614774
16.078554,-10.54959,1.6824545,16.0,10,-0.05961247
3.0121772,-1.9771256,-0.570673,45.0,3,-0.059610166
3.4643152,-2.2756295,-0.5089264,41.0,4,-0.059605557
41.781242,-27.455584,7.918401,12.0,12,-0.059603255
3.8779314,-2.5482936,-0.4059714,38.0,5,-0.05960095
41.882633,-27.532677,9.742707,30.0,13,-0.059598647
4.544005,-2.9882603,-0.28502163,39.0,6,-0.05959634
31.147354,-20.49113,8.607527,32.0,14,-0.05959404
5.420453,-3.5673468,-0.11326612,32.0,7,-0.059591737
31.055887,-20.446491,9.962981,19.0,15,-0.05958943
2.255531,-1.4889437,-0.7241757,43.0,0,-0.059568696
6.7848225,-4.480565,0.14192297,62.0,8,-0.05956639
2.456833,-1.6230608,-0.67980206,45.0,1,-0.059564088
9.037768,-5.9728994,0.5677405,32.0,9,-0.05956178
2.7319942,-1.8055259,-0.63653886,46.0,2,-0.05955948
16.556854,-10.946279,1.7364911,20.0,10,-0.059557173
3.011848,-1.9919871,-0.57192445,47.0,3,-0.05955487
3.4182775,-2.2625086,-0.5033204,38.0,4,-0.059550263
41.665386,-27.588173,7.914646,12.0,12,-0.05954796
3.902238,-2.5838141,-0.40945768,35.0,5,-0.059545655
4.5035777,-2.9842455,-0.28313756,39.0,6,-0.059541047
31.192587,-20.677256,8.63992,25.0,14,-0.059538744
5.4213004,-3.5950875,-0.11354536,34.0,7,-0.05953644
31.142092,-20.659431,10.013709,19.0,15,-0.059534136
2.256754,-1.5010877,-0.7262463,37.0,0,-0.059513398
6.847388,-4.5562873,0.14356351,65.0,8,-0.059511095
2.470619,-1.6445849,-0.6852009,50.0,1,-0.05950879
9.003566,-5.9955544,0.5669032,37.0,9,-0.059506487
2.7191386,-1.8106985,-0.6350123,47.0,2,-0.05950418
16.319563,-10.871454,1.7155735,23.0,10,-0.05950188
3.0426836,-2.0276835,-0.57912046,36.0,3,-0.059499577
3.4054048,-2.2711227,-0.5025892,32.0,4,-0.05949497
41.447227,-27.652319,7.8914943,12.0,12,-0.059492663
3.9163976,-2.6129003,-0.41189805,41.0,5,-0.05949036
4.5346594,-3.0276732,-0.28575432,40.0,6,-0.059485752
41.08634,-27.44264,11.406818,18.0,14,-0.059483446
5.4386463,-3.6339872,-0.11417364,34.0,7,-0.059481144
30.950937,-20.688568,9.975405,19.0,15,-0.059478838
2.2450814,-1.5046539,-0.7241757,29.0,0,-0.059458103
6.8713045,-4.606888,0.14440121,67.0,8,-0.059455797
2.4648633,-1.6531988,-0.6852009,50.0,1,-0.059453495
9.063849,-6.0814734,0.57203203,38.0,9,-0.059451193
2.7160623,-1.822367,-0.6357756,47.0,2,-0.059448887
16.215343,-10.88394,1.7086011,13.0,10,-0.059446584
3.0503469,-2.048203,-0.5819363,39.0,3,-0.05944428
3.3974564,-2.282996,-0.5025892,38.0,4,-0.05943967
42.704594,-28.707119,8.149924,13.0,12,-0.059437368
3.9270952,-2.6398935,-0.41398975,38.0,5,-0.059435062
42.602093,-28.649006,9.979311,31.0,13,-0.05943276
4.538978,-3.0535176,-0.2866964,39.0,6,-0.059430454
40.911076,-27.532578,11.384772,12.0,14,-0.05942815
5.442516,-3.664117,-0.11452269,32.0,7,-0.059425846
30.865711,-20.787848,9.971263,19.0,15,-0.059423544
2.2510226,-1.5200495,-0.7277992,26.0,0,-0.05940281
6.8783793,-4.6465154,0.14488988,75.0,8,-0.059400503
2.4719944,-1.6705217,-0.6888001,48.0,1,-0.0593982
9.054149,-6.120905,0.57276475,32.0,9,-0.059395894
2.7129374,-1.8340356,-0.63653886,47.0,2,-0.059393592
15.566604,-10.5275,1.6441058,3.0,10,-0.059391286
3.0104566,-2.0366998,-0.5756789,45.0,3,-0.059388984
3.366454,-2.2792604,-0.49917686,31.0,4,-0.059384376
42.695713,-28.918045,8.167444,13.0,12,-0.05938207
3.9162068,-2.6524687,-0.41381544,34.0,5,-0.059379768
42.79438,-28.995764,10.048002,31.0,13,-0.05937746
4.5349045,-3.0738256,-0.28711507,39.0,6,-0.05937516
31.596931,-21.424917,8.813582,15.0,14,-0.059372853
5.485959,-3.7212594,-0.115709454,38.0,7,-0.05937055
40.761547,-27.659935,13.199254,20.0,15,-0.059368245
2.2648697,-1.540938,-0.7340109,44.0,0,-0.05934751
6.872037,-4.677248,0.1450993,72.0,8,-0.059345208
2.4532619,-1.6703665,-0.6852009,48.0,1,-0.059342902
9.075646,-6.181705,0.57548624,32.0,9,-0.0593406
2.7162545,-1.8501254,-0.6388285,46.0,2,-0.059338294
16.534126,-11.266134,1.750436,21.0,10,-0.05933599
3.045767,-2.0761237,-0.5838135,51.0,3,-0.059333686
37.969414,-25.891272,5.6427946,9.0,11,-0.059331384
3.374876,-2.302184,-0.5016143,31.0,4,-0.059329078
42.813156,-29.2161,8.209369,14.0,12,-0.059326775
3.8641357,-2.6369226,-0.40928334,38.0,5,-0.05932447
42.851807,-29.253447,10.085401,32.0,13,-0.059322167
4.5455885,-3.1042793,-0.2884758,37.0,6,-0.05931986
40.896477,-27.939537,11.434711,25.0,14,-0.05931756
5.471285,-3.7392578,-0.11567455,40.0,7,-0.059315257
31.115334,-21.273222,10.099638,19.0,15,-0.05931295
2.25151,-1.5433731,-0.73142266,42.0,0,-0.059292216
6.868862,-4.7102547,0.14537854,67.0,8,-0.05928991
2.45063,-1.6811247,-0.6861007,48.0,1,-0.059287608
8.882747,-6.095816,0.56460035,32.0,9,-0.0592853
2.7162547,-1.8640392,-0.64035505,51.0,2,-0.059283
16.581755,-11.383545,1.7596744,10.0,10,-0.059280694
3.036873,-2.0856247,-0.5835006,50.0,3,-0.05927839
37.711918,-25.90899,5.6179338,18.0,11,-0.059276085
3.3422794,-2.297085,-0.49795815,45.0,4,-0.059273783
42.606735,-29.293745,8.189345,13.0,12,-0.059271477
3.8516243,-2.6481376,-0.40893474,48.0,5,-0.059269175
42.96619,-29.551933,10.136538,32.0,13,-0.059266873
4.567633,-3.1427693,-0.29056925,40.0,6,-0.059264567
40.895016,-28.14842,11.461706,6.0,14,-0.059262265
5.4796104,-3.7730765,-0.11612831,36.0,7,-0.05925996
31.028156,-21.372936,10.095496,19.0,15,-0.059257656
2.2540567,-1.5567123,-0.7340109,39.0,0,-0.059236918
6.7964406,-4.6955566,0.14419177,67.0,8,-0.059234615
2.4431438,-1.6885604,-0.6856508,44.0,1,-0.05923231
9.012555,-6.2312846,0.57423013,37.0,9,-0.059230007
2.714576,-1.8768592,-0.6414999,48.0,2,-0.0592277
15.997893,-11.065079,1.701803,10.0,10,-0.0592254
3.0295744,-2.0962126,-0.5835006,49.0,3,-0.059223093
37.546165,-25.988503,5.6067214,9.0,11,-0.05922079
3.3554573,-2.323429,-0.50112677,35.0,4,-0.05921849
