x,y,z,intensity,ring,time
29.930857,-15.034021,8.97481,15.0,15,-0.07047571
2.10136,-1.0587127,-0.6304832,45.0,0,-0.07045498
5.1945605,-2.6182742,0.1015381,46.0,8,-0.07045267
2.2759604,-1.1476767,-0.58847195,47.0,1,-0.070450366
6.569296,-3.3140736,0.3856114,31.0,9,-0.07044806
2.5258372,-1.2742325,-0.54991156,45.0,2,-0.07044576
8.985952,-4.535195,0.88062155,22.0,10,-0.07044345
2.8054879,-1.4165393,-0.49777454,38.0,3,-0.07044115
16.116886,-8.141225,2.2170475,30.0,11,-0.07043885
3.0508833,-1.5417804,-0.41971806,43.0,4,-0.070436545
36.526924,-18.467083,6.482645,23.0,12,-0.070434235
3.4405558,-1.7394574,-0.3372927,32.0,5,-0.07043193
41.11556,-20.795994,8.956193,49.0,13,-0.07042963
3.7958643,-1.9207565,-0.2229512,28.0,6,-0.07042733
41.05997,-20.785875,10.624888,16.0,14,-0.07042502
4.383177,-2.219866,-0.08576112,26.0,7,-0.07042272
31.087934,-15.751348,9.338192,17.0,15,-0.070420414
2.092485,-1.0634156,-0.6289303,42.0,0,-0.07039968
5.0980453,-2.5919824,0.09982777,46.0,8,-0.07039738
2.284099,-1.1617987,-0.5916213,41.0,1,-0.07039507
6.64491,-3.3813694,0.3907403,34.0,9,-0.070392765
2.5126252,-1.2785897,-0.5480035,41.0,2,-0.07039046
8.920352,-4.5412245,0.8757409,22.0,10,-0.07038816
2.784684,-1.4182552,-0.4949587,43.0,3,-0.07038585
16.15912,-8.233483,2.2267969,40.0,11,-0.07038355
3.068474,-1.5641403,-0.42288667,39.0,4,-0.07038125
36.479836,-18.603445,6.485774,15.0,12,-0.070378944
3.3687913,-1.7179661,-0.3308432,29.0,5,-0.070376635
41.17213,-21.00541,8.984433,24.0,13,-0.07037433
3.785579,-1.9321789,-0.22274184,38.0,6,-0.07037203
41.40543,-21.142656,10.7333145,11.0,14,-0.07036973
4.32732,-2.2105906,-0.08481869,33.0,7,-0.070367426
30.63195,-15.654927,9.217582,16.0,15,-0.070365116
2.0941052,-1.0729917,-0.6304832,45.0,0,-0.0703454
5.215768,-2.6736398,0.10230601,40.0,8,-0.0703431
2.2490215,-1.1533602,-0.58352304,45.0,1,-0.0703408
6.6087813,-3.390622,0.38927487,37.0,9,-0.07033849
2.5083714,-1.2869148,-0.5480035,42.0,2,-0.070336185
9.011596,-4.6253676,0.88619953,33.0,10,-0.07033388
2.7922666,-1.4337981,-0.4971488,37.0,3,-0.07033158
16.092882,-8.267067,2.2214346,38.0,11,-0.07032927
3.0668015,-1.5761219,-0.42337415,39.0,4,-0.07032697
36.618217,-18.827286,6.521441,15.0,12,-0.07032467
3.4357235,-1.7664801,-0.33798996,33.0,5,-0.070322365
3.814669,-1.9629991,-0.22483528,34.0,6,-0.07031775
31.149027,-16.035925,8.08834,9.0,14,-0.07031545
4.3804097,-2.2560592,-0.086005464,31.0,7,-0.07031315
31.093342,-16.02099,9.372355,25.0,15,-0.07031084
2.114374,-1.0927122,-0.6377302,50.0,0,-0.0702901
5.1957455,-2.6863196,0.10209658,46.0,8,-0.0702878
2.2519057,-1.1647849,-0.5853227,45.0,1,-0.0702855
6.627061,-3.4292746,0.3910543,28.0,9,-0.0702832
2.5003765,-1.2938582,-0.5472402,46.0,2,-0.07028089
9.071478,-4.6961827,0.893695,27.0,10,-0.070278585
2.778474,-1.4389938,-0.49558446,40.0,3,-0.07027628
16.132668,-8.358808,2.2309406,22.0,11,-0.07027398
3.0436573,-1.577682,-0.42093676,40.0,4,-0.07027167
36.72939,-19.046839,6.5530405,24.0,12,-0.07026937
3.4542985,-1.7913032,-0.34043032,37.0,5,-0.07026707
3.7758849,-1.9597417,-0.2229512,41.0,6,-0.070262454
41.082424,-21.331505,10.686975,10.0,14,-0.07026015
4.392028,-2.2814758,-0.086389415,24.0,7,-0.07025785
30.9978,-16.108938,9.36045,17.0,15,-0.07025555
2.131104,-1.1108011,-0.6439418,56.0,0,-0.07023481
5.212933,-2.7183084,0.10262015,48.0,8,-0.0702325
2.254737,-1.1762438,-0.58712226,45.0,1,-0.0702302
6.6894164,-3.491198,0.39545053,33.0,9,-0.0702279
2.4784403,-1.2934949,-0.543424,36.0,2,-0.0702256
9.017941,-4.708455,0.89003444,22.0,10,-0.07022329
2.755925,-1.4395381,-0.49245578,40.0,3,-0.070220985
16.198395,-8.464717,2.2441022,22.0,11,-0.07021868
3.0293357,-1.5836984,-0.41971806,36.0,4,-0.07021638
36.785206,-19.239016,6.5749416,16.0,12,-0.07021407
3.4515555,-1.8051966,-0.34077895,32.0,5,-0.07021177
3.7442484,-1.9599426,-0.2214858,36.0,6,-0.07020716
41.225235,-21.58869,10.743662,38.0,14,-0.07020486
4.3592386,-2.283801,-0.08590075,26.0,7,-0.07020255
30.975605,-16.23498,9.370803,8.0,15,-0.07020025
2.1186638,-1.1137388,-0.6413536,56.0,0,-0.070179515
5.2547393,-2.7634811,0.10363239,38.0,8,-0.07017721
2.2782114,-1.198625,-0.5943207,45.0,1,-0.0701749
6.74435,-3.5498774,0.39942807,30.0,9,-0.0701726
2.4982321,-1.3149403,-0.54876673,39.0,2,-0.0701703
8.885098,-4.678637,0.8785299,22.0,10,-0.070167996
2.764865,-1.4565146,-0.4949587,43.0,3,-0.07016569
16.388268,-8.636898,2.2745697,26.0,11,-0.070163384
3.0114968,-1.5877821,-0.41801187,34.0,4,-0.07016108
36.869835,-19.447483,6.602161,16.0,12,-0.07015878
3.350071,-1.7670393,-0.33136615,33.0,5,-0.07015648
3.772709,-1.991649,-0.22357923,30.0,6,-0.070151865
41.387424,-21.858051,10.805749,22.0,14,-0.07014956
4.349472,-2.2980692,-0.08586584,27.0,7,-0.07014726
30.768448,-16.263561,9.325251,16.0,15,-0.07014495
2.1113496,-1.1193179,-0.6403184,57.0,0,-0.07012422
5.2432942,-2.7808695,0.103597485,29.0,8,-0.070121914
2.2826207,-1.2111368,-0.5965702,47.0,1,-0.07011961
6.7213326,-3.567779,0.39880002,28.0,9,-0.0701173
2.47802,-1.3153683,-0.54533213,38.0,2,-0.070115
9.051718,-4.8068056,0.89665824,22.0,10,-0.0701127
2.756275,-1.4643035,-0.49433297,47.0,3,-0.070110396
16.431639,-8.733179,2.2848067,18.0,11,-0.07010809
3.0147,-1.6029444,-0.41923055,36.0,4,-0.07010578
37.00054,-19.681822,6.6378284,16.0,12,-0.07010348
3.3597136,-1.7871435,-0.33293492,38.0,5,-0.07010118
3.8203864,-2.033902,-0.22682405,31.0,6,-0.07009657
41.649715,-22.182858,10.89438,11.0,14,-0.070094265
4.3978977,-2.3433287,-0.086982794,27.0,7,-0.07009196
31.195644,-16.628946,9.47226,8.0,15,-0.07008966
2.1108367,-1.1285026,-0.6413536,54.0,0,-0.07006892
5.055459,-2.703901,0.1000721,22.0,8,-0.070066616
2.2818153,-1.2209361,-0.59747,47.0,1,-0.07006431
6.698273,-3.5855637,0.398172,28.0,9,-0.07006201
2.4993768,-1.3379081,-0.55105644,39.0,2,-0.07005971
9.191201,-4.922085,0.912172,33.0,10,-0.0700574
2.7755241,-1.4869758,-0.49871314,43.0,3,-0.0700551
15.356525,-8.230646,2.1392946,12.0,11,-0.070052795
3.0003388,-1.6087675,-0.41801187,34.0,4,-0.07005049
36.98906,-19.841671,6.6481524,8.0,12,-0.07004818
3.3868139,-1.8167546,-0.33624685,37.0,5,-0.07004588
3.809744,-2.0453358,-0.22661473,27.0,6,-0.07004128
41.43125,-22.252495,10.857488,16.0,14,-0.07003897
4.4354906,-2.383275,-0.08789032,34.0,7,-0.070036665
30.843035,-16.579498,9.382709,17.0,15,-0.07003436
2.1068847,-1.1358639,-0.6413536,43.0,0,-0.07001363
5.2466326,-2.8297472,0.10405125,27.0,8,-0.070011325
2.2826848,-1.2316698,-0.59881973,48.0,1,-0.070009016
6.6927466,-3.612718,0.39859068,28.0,9,-0.07000671
2.4843256,-1.3410292,-0.54876673,39.0,2,-0.07000441
9.21078,-4.974019,0.9158325,35.0,10,-0.07000211
2.7772686,-1.5004108,-0.4999646,45.0,3,-0.0699998
15.26134,-8.248333,2.1300325,2.0,11,-0.0699975
2.9877203,-1.6154543,-0.41703692,44.0,4,-0.069995195
37.16977,-20.106005,6.693206,17.0,12,-0.06999289
3.3804512,-1.8285657,-0.33624685,37.0,5,-0.06999058
42.01107,-22.734259,9.285148,27.0,13,-0.06998828
3.8833754,-2.1023617,-0.23142964,35.0,6,-0.06998598
41.639484,-22.551968,10.932621,16.0,14,-0.069983676
4.4078045,-2.3882642,-0.08750637,27.0,7,-0.06998137
30.790068,-16.689821,9.384262,17.0,15,-0.069979064
2.1147878,-1.1496702,-0.6449771,46.0,0,-0.06995833
5.159428,-2.8060062,0.10251543,27.0,8,-0.06995603
2.2749481,-1.2377677,-0.59791994,50.0,1,-0.069953725
6.6099257,-3.5978644,0.3944038,31.0,9,-0.069951415
2.458937,-1.3384298,-0.5441873,42.0,2,-0.06994911
9.163614,-4.9899426,0.9128693,41.0,10,-0.06994681
2.7564023,-1.5015913,-0.4971488,50.0,3,-0.06994451
16.443867,-8.961765,2.2994308,26.0,11,-0.0699422
3.0064633,-1.6391768,-0.42044926,51.0,4,-0.0699399
37.29706,-20.343462,6.7288733,8.0,12,-0.069937594
3.4195247,-1.8651597,-0.34077895,32.0,5,-0.06993529
3.8584824,-2.1063344,-0.23038292,31.0,6,-0.06993068
41.77772,-22.815804,10.989759,17.0,14,-0.06992838
4.3766274,-2.3911717,-0.087052606,31.0,7,-0.069926076
41.62474,-22.751125,12.710604,17.0,15,-0.06992377
2.1209261,-1.162617,-0.6480829,51.0,0,-0.06990303
5.2933774,-2.902844,0.10537763,42.0,8,-0.06990073
2.275739,-1.2485131,-0.59926957,43.0,1,-0.06989843
6.6463513,-3.6478226,0.39733464,33.0,9,-0.069896124
2.4766238,-1.3592848,-0.5491483,45.0,2,-0.069893815
9.177576,-5.03916,0.9160068,41.0,10,-0.06989151
2.756338,-1.5140569,-0.4980874,46.0,3,-0.06988921
16.536007,-9.086988,2.3167362,24.0,11,-0.06988691
3.0163794,-1.6582683,-0.42264292,36.0,4,-0.0698846
37.419674,-20.580147,6.763914,8.0,12,-0.069882296
3.4321969,-1.8876464,-0.34269637,38.0,5,-0.069879994
42.535927,-23.403664,9.437032,28.0,13,-0.06987769
3.9070966,-2.1506093,-0.2337324,31.0,6,-0.06987539
41.70465,-22.965254,10.991559,17.0,14,-0.06987308
4.391024,-2.418978,-0.08750637,28.0,7,-0.06987078
41.46048,-22.84966,12.684722,17.0,15,-0.069868475
2.0914931,-1.1559955,-0.6403184,47.0,0,-0.06984774
5.228962,-2.8913069,0.10429558,34.0,8,-0.06984543
2.2679565,-1.2545627,-0.5983698,40.0,1,-0.06984313
6.591637,-3.6477902,0.39482248,28.0,9,-0.069840826
2.487324,-1.3764769,-0.55258286,41.0,2,-0.069838524
9.17039,-5.0769544,0.9170527,41.0,10,-0.069836214
2.7406678,-1.5179267,-0.4962102,51.0,3,-0.06983391
16.485085,-9.134071,2.3140552,26.0,11,-0.06983161
3.0400877,-1.6851481,-0.42678648,29.0,4,-0.06982931
37.544548,-20.819849,6.7995815,8.0,12,-0.069827005
3.4308143,-1.9025142,-0.3432193,39.0,5,-0.069824696
3.9310002,-2.1816802,-0.2356165,32.0,6,-0.06982009
42.21373,-23.437994,11.147224,11.0,14,-0.06981779
4.3336053,-2.407103,-0.08652903,28.0,7,-0.06981548
30.964848,-17.206509,9.491931,17.0,15,-0.06981318
2.095883,-1.1679912,-0.64290655,50.0,0,-0.06979244
5.2345576,-2.9183056,0.10460973,38.0,8,-0.06979014
2.253352,-1.2567765,-0.5956704,40.0,1,-0.06978783
6.610258,-3.6882944,0.39670658,31.0,9,-0.06978553
2.4893615,-1.3889773,-0.55410933,39.0,2,-0.069783226
9.10216,-5.0807724,0.9119977,33.0,10,-0.06978092
2.7336278,-1.5265208,-0.4958973,52.0,3,-0.06977862
16.518955,-9.228349,2.3233173,24.0,11,-0.06977631
3.0844393,-1.7238346,-0.4338549,39.0,4,-0.06977401
3.422413,-1.913506,-0.343045,36.0,5,-0.069769405
3.946019,-2.2080677,-0.23697723,33.0,6,-0.06976479
41.98202,-23.501436,11.107634,11.0,14,-0.06976249
4.3583264,-2.4407802,-0.08719222,27.0,7,-0.06976019
31.056276,-17.399471,9.538517,8.0,15,-0.06975788
2.1120036,-1.1866556,-0.6491182,51.0,0,-0.069737144
5.2801204,-2.9679143,0.105726674,42.0,8,-0.06973484
2.254047,-1.2674998,-0.5970201,41.0,1,-0.06973254
6.6721945,-3.7534535,0.40120748,27.0,9,-0.06973024
2.4793649,-1.3947705,-0.5529645,38.0,2,-0.06972793
9.155559,-5.1525774,0.91914445,27.0,10,-0.069725625
2.7282825,-1.5360538,-0.4958973,50.0,3,-0.06972332
16.599066,-9.349276,2.3391602,26.0,11,-0.06972102
3.0386257,-1.7121776,-0.4282489,38.0,4,-0.06971871
3.4278626,-1.9322895,-0.3442652,39.0,5,-0.06971411
3.9661198,-2.2375302,-0.23865199,36.0,6,-0.069709495
42.325703,-23.888252,11.220558,17.0,14,-0.06970719
4.311471,-2.4343486,-0.08642431,27.0,7,-0.06970489
42.312267,-23.900148,13.021187,19.0,15,-0.06970259
2.1044867,-1.1921163,-0.6480829,52.0,0,-0.06968185
5.25929,-2.9804118,0.10551725,36.0,8,-0.06967954
2.258085,-1.2801657,-0.59926957,44.0,1,-0.06967724
6.8067217,-3.860473,0.4101046,28.0,9,-0.06967494
2.4813118,-1.4072909,-0.554491,35.0,2,-0.06967264
9.224161,-5.2336664,0.92786,35.0,10,-0.06967033
2.7263403,-1.5475181,-0.49652308,50.0,3,-0.069668025
16.662998,-9.462054,2.35281,28.0,11,-0.06966572
3.0170965,-1.7139492,-0.42605525,36.0,4,-0.06966342
37.98052,-21.584703,6.9190974,9.0,12,-0.06966111
3.4262931,-1.9471962,-0.3447881,30.0,5,-0.06965881
3.963493,-2.2543232,-0.23896599,35.0,6,-0.069654204
41.53746,-23.634932,11.0334,5.0,14,-0.069651894
4.3324914,-2.4662008,-0.08701769,26.0,7,-0.06964959
42.52404,-24.215956,13.112291,19.0,15,-0.06964729
2.0902472,-1.1937069,-0.6449771,51.0,0,-0.069626555
5.330461,-3.045375,0.107157774,54.0,8,-0.06962425
2.2569866,-1.2899741,-0.6001694,44.0,1,-0.06962194
6.850422,-3.9169252,0.41355878,34.0,9,-0.06961964
2.4627497,-1.4081478,-0.55143803,34.0,2,-0.06961734
9.254261,-5.293532,0.93274075,44.0,10,-0.069615036
2.7449248,-1.570761,-0.5009032,49.0,3,-0.06961273
16.767689,-9.59906,2.372309,28.0,11,-0.069610424
3.0386567,-1.7402551,-0.42995507,42.0,4,-0.06960812
3.3779852,-1.9353733,-0.34060463,30.0,5,-0.06960351
43.71529,-25.05625,9.794226,30.0,13,-0.06960121
3.9867873,-2.2860277,-0.24085009,32.0,6,-0.069598906
41.402306,-23.749723,11.019453,17.0,14,-0.0695966
4.365482,-2.5051966,-0.08785542,31.0,7,-0.0695943
31.612894,-18.148865,9.767314,9.0,15,-0.06959199
2.0877419,-1.2019597,-0.64549476,48.0,0,-0.06957126
5.292073,-3.0479946,0.1065993,56.0,8,-0.069568954
2.2575355,-1.3007632,-0.6015191,41.0,1,-0.06956665
6.854011,-3.9507875,0.4146055,38.0,9,-0.06956434
2.4697256,-1.4235988,-0.55410933,39.0,2,-0.06956204
9.256438,-5.3377466,0.9348325,44.0,10,-0.06955974
2.713759,-1.5655266,-0.4962102,43.0,3,-0.069557436
16.775345,-9.681347,2.3781586,26.0,11,-0.069555126
3.0445976,-1.7577993,-0.43166125,52.0,4,-0.069552824
3.3625827,-1.9421706,-0.3397331,28.0,5,-0.06954822
3.9476585,-2.2819383,-0.23896599,35.0,6,-0.06954361
41.793194,-24.168228,11.145875,23.0,14,-0.069541305
4.3515177,-2.5174155,-0.0877507,30.0,7,-0.069539
32.107803,-18.582308,9.940205,9.0,15,-0.0695367
2.0835335,-1.2092402,-0.64549476,49.0,0,-0.06951596
5.2554607,-3.0513878,0.10607573,40.0,8,-0.069513656
2.2546663,-1.3096144,-0.601969,40.0,1,-0.069511354
6.8246365,-3.9656577,0.41366345,28.0,9,-0.06950905
2.4749262,-1.4381294,-0.55639905,39.0,2,-0.06950675
9.254974,-5.3800383,0.9365756,35.0,10,-0.06950444
2.7082777,-1.5749897,-0.4962102,45.0,3,-0.06950214
16.72772,-9.731856,2.3762088,22.0,11,-0.069499835
3.0384433,-1.7684162,-0.43166125,50.0,4,-0.06949753
41.637753,-24.24348,7.631187,11.0,12,-0.06949522
3.3626697,-1.9579062,-0.34043032,31.0,5,-0.06949292
3.9810848,-2.3198385,-0.24147813,35.0,6,-0.06948832
41.828106,-24.383648,11.177818,11.0,14,-0.06948601
4.366887,-2.5466936,-0.088239364,30.0,7,-0.069483705
2.0826344,-1.2184567,-0.64653003,47.0,0,-0.06946067
5.253407,-3.0747652,0.10625025,45.0,8,-0.069458365
2.2299013,-1.3056607,-0.5965702,34.0,1,-0.069456056
6.7831783,-3.9733038,0.41198868,30.0,9,-0.06945375
2.4648092,-1.4437828,-0.5552542,37.0,2,-0.06945145
9.143312,-5.3579164,0.92716277,30.0,10,-0.06944915
2.7198048,-1.594424,-0.49933887,45.0,3,-0.06944684
16.786114,-9.844416,2.3893704,28.0,11,-0.06944454
3.0391006,-1.7830298,-0.4326362,51.0,4,-0.069442235
41.713013,-24.482666,7.6605964,11.0,12,-0.06943993
3.3778064,-1.9833324,-0.34269637,36.0,5,-0.06943762
3.9281874,-2.3074193,-0.23875666,35.0,6,-0.06943302
41.62681,-24.461382,11.146774,23.0,14,-0.06943072
4.4096875,-2.5923235,-0.08928651,30.0,7,-0.06942841
31.637589,-18.606226,9.834606,9.0,15,-0.069426104
2.0814824,-1.2280449,-0.64756525,49.0,0,-0.06940537
5.2288637,-3.084955,0.105971016,45.0,8,-0.06940307
2.2471468,-1.3263134,-0.60241896,36.0,1,-0.069400765
6.74863,-3.9847717,0.41073263,28.0,9,-0.069398455
2.478095,-1.4637907,-0.559452,39.0,2,-0.06939615
9.140766,-5.401528,0.9289059,30.0,10,-0.06939385
2.712242,-1.6033765,-0.499026,52.0,3,-0.06939155
16.876392,-9.976696,2.4071634,30.0,11,-0.06938924
3.0328581,-1.7936271,-0.4326362,52.0,4,-0.06938694
41.76331,-24.708591,7.685626,11.0,12,-0.069384634
3.4051545,-2.015407,-0.34618258,37.0,5,-0.06938233
42.28229,-25.03557,9.5515175,29.0,13,-0.06938002
4.0021873,-2.3706598,-0.2437809,35.0,6,-0.06937772
41.602257,-24.65253,11.164321,11.0,14,-0.06937542
4.44362,-2.6331863,-0.09015913,27.0,7,-0.069373116
31.585741,-18.724426,9.838747,9.0,15,-0.069370806
2.085485,-1.2402405,-0.65015346,50.0,0,-0.06935007
5.2673593,-3.1337495,0.10698325,45.0,8,-0.06934777
2.2523181,-1.3405207,-0.60511833,41.0,1,-0.06934547
6.7055025,-3.9909396,0.40895322,31.0,9,-0.069343165
2.4628491,-1.4664054,-0.5571623,42.0,2,-0.069340855
9.077352,-5.406893,0.9243738,24.0,10,-0.06933855
2.7286892,-1.6259797,-0.5030933,45.0,3,-0.06933625
16.894278,-10.071012,2.4149632,24.0,11,-0.06933395
3.0245585,-1.8037144,-0.43239245,54.0,4,-0.06933164
3.3553228,-2.0017614,-0.34182483,42.0,5,-0.069327034
4.002463,-2.3897355,-0.24430427,42.0,6,-0.06932242
41.50424,-24.790604,11.161171,23.0,14,-0.06932012
4.39835,-2.6271474,-0.08942613,30.0,7,-0.06931782
31.686022,-18.93366,9.8905115,18.0,15,-0.069315515
2.0778294,-1.2455261,-0.6491182,46.0,0,-0.06929478
5.2483625,-3.1460586,0.10680873,51.0,8,-0.06929247
2.239504,-1.3429712,-0.6028688,40.0,1,-0.06929017
6.7634635,-4.057475,0.41334942,28.0,9,-0.06928787
2.4593987,-1.4760038,-0.55754393,35.0,2,-0.069285564
9.063546,-5.441623,0.9248967,22.0,10,-0.069283254
2.7131207,-1.6289188,-0.5012161,45.0,3,-0.06928095
17.039469,-10.234299,2.4405556,30.0,11,-0.06927865
3.037278,-1.8249806,-0.43507358,47.0,4,-0.06927635
3.3107512,-1.9908731,-0.33798996,42.0,5,-0.069271736
3.9876704,-2.3988767,-0.24388559,36.0,6,-0.06926713
4.4491134,-2.6785839,-0.0906478,33.0,7,-0.06926252
32.106274,-19.337185,10.042697,9.0,15,-0.06926022
2.0736878,-1.2524096,-0.6491182,46.0,0,-0.06923948
5.2681565,-3.1829736,0.107437015,47.0,8,-0.06923718
2.2431414,-1.3558205,-0.60511833,41.0,1,-0.06923487
6.8398423,-4.135832,0.41889706,31.0,9,-0.06923257
2.4679308,-1.4922781,-0.5605969,37.0,2,-0.069230266
9.086366,-5.496398,0.92908025,22.0,10,-0.06922796
2.690518,-1.6281523,-0.4980874,47.0,3,-0.069225654
17.074965,-10.336893,2.4507926,28.0,11,-0.06922335
3.0648487,-1.8561383,-0.43994835,38.0,4,-0.06922105
42.34364,-25.65432,7.841435,12.0,12,-0.06921875
3.3245795,-2.0142298,-0.3400817,38.0,5,-0.069216445
3.9861038,-2.4169235,-0.24430427,42.0,6,-0.06921183
42.08598,-25.52835,11.364078,12.0,14,-0.06920953
4.4927325,-2.7262568,-0.09172984,30.0,7,-0.06920723
2.0676532,-1.258636,-0.6486005,47.0,0,-0.069184184
5.250182,-3.1971831,0.1072974,45.0,8,-0.06918188
2.2267454,-1.3565453,-0.601969,43.0,1,-0.06917958
6.8304796,-4.1628,0.41921103,31.0,9,-0.06917728
2.4694126,-1.5049704,-0.5621233,37.0,2,-0.06917497
9.187905,-5.6017203,0.94145626,30.0,10,-0.069172665
2.7050557,-1.6498772,-0.50184184,47.0,3,-0.06917036
16.999804,-10.372651,2.4451866,26.0,11,-0.06916806
3.0702114,-1.8740649,-0.44165453,42.0,4,-0.06916575
3.3158276,-2.0247843,-0.33990738,36.0,5,-0.06916115
3.964009,-2.4224913,-0.2434669,41.0,6,-0.069156535
42.912727,-26.235178,11.611974,6.0,14,-0.06915423
4.530955,-2.7711365,-0.09270719,30.0,7,-0.06915193
32.217674,-19.71209,10.120342,9.0,15,-0.06914963
2.0714803,-1.2708969,-0.65118873,46.0,0,-0.06912889
5.3122745,-3.2604697,0.1087983,49.0,8,-0.06912658
2.2269788,-1.3673688,-0.60331875,41.0,1,-0.06912428
6.8329263,-4.197071,0.42025778,31.0,9,-0.06912198
2.4708357,-1.5176914,-0.56364983,45.0,2,-0.06911968
9.278634,-5.7015586,0.9527865,22.0,10,-0.06911737
2.7026455,-1.6613784,-0.5024676,49.0,3,-0.069115065
16.951654,-10.42465,2.4434805,16.0,11,-0.06911276
3.0501251,-1.8764495,-0.43970463,46.0,4,-0.06911046
41.853966,-25.7588,7.7838674,12.0,12,-0.06910815
3.3358881,-2.0530546,-0.34269637,30.0,5,-0.06910585
3.9436245,-2.428981,-0.24273418,40.0,6,-0.069101244
31.791313,-19.588755,8.621024,3.0,14,-0.069098935
4.512743,-2.7816896,-0.09253266,33.0,7,-0.06909663
32.22431,-19.871075,10.144154,9.0,15,-0.06909433
2.0719607,-1.2811681,-0.6527417,43.0,0,-0.069073595
5.2872562,-3.2705772,0.10851907,42.0,8,-0.06907129
2.237106,-1.3843633,-0.6073678,43.0,1,-0.06906898
6.8216305,-4.223,0.4204671,30.0,9,-0.06906668
2.4588459,-1.5221735,-0.5621233,38.0,2,-0.06906438
9.323043,-5.7737756,0.95941037,19.0,10,-0.06906208
2.7001884,-1.672883,-0.5030933,47.0,3,-0.06905977
17.007965,-10.541275,2.4568863,10.0,11,-0.069057465
3.0317466,-1.8797624,-0.43799844,54.0,4,-0.06905516
3.3574848,-2.0825403,-0.34565967,27.0,5,-0.06905055
3.9351215,-2.4427323,-0.24273418,31.0,6,-0.069045946
31.906506,-19.813723,8.670963,14.0,14,-0.069043644
4.560758,-2.833303,-0.09371942,37.0,7,-0.06904134
31.954575,-19.859032,10.081002,9.0,15,-0.06903903
2.0625575,-1.2853276,-0.65118873,50.0,0,-0.06900215
5.263929,-3.2816083,0.108274736,42.0,8,-0.06899985
2.2272997,-1.38907,-0.6060182,39.0,1,-0.06899755
6.884795,-4.295417,0.42528203,31.0,9,-0.06899524
2.4568486,-1.5328255,-0.56288654,38.0,2,-0.068992935
9.096628,-5.6775837,0.93814445,16.0,10,-0.06899063
2.7010348,-1.6864831,-0.50434476,49.0,3,-0.06898833
17.526667,-10.947623,2.5373201,17.0,11,-0.06898602
3.0537853,-1.9082168,-0.44214204,54.0,4,-0.06898372
3.3620212,-2.10164,-0.34687987,29.0,5,-0.068979114
3.9181051,-2.4511573,-0.24221084,33.0,6,-0.0689745
31.665348,-19.817457,8.624173,29.0,14,-0.0689722
4.552535,-2.8502667,-0.09375433,33.0,7,-0.0689699
2.0629659,-1.295602,-0.6527417,47.0,0,-0.06894685
5.311705,-3.3371959,0.1094964,49.0,8,-0.06894455
2.230687,-1.4020213,-0.60826766,44.0,1,-0.06894225
6.91203,-4.3460016,0.42789882,32.0,9,-0.06893995
2.4514828,-1.5413921,-0.56288654,38.0,2,-0.06893764
9.373579,-5.8960056,0.9688232,33.0,10,-0.068935335
2.6951315,-1.6959013,-0.50434476,47.0,3,-0.06893303
17.6933,-11.137753,2.5670562,21.0,11,-0.06893073
3.045426,-1.9178072,-0.4418983,52.0,4,-0.06892842
41.906178,-26.399944,7.844564,12.0,12,-0.06892612
3.3411787,-2.104867,-0.34548536,29.0,5,-0.068923816
41.797234,-26.341501,9.603417,29.0,13,-0.068921514
3.9450047,-2.4871876,-0.24440894,35.0,6,-0.068919204
31.60752,-19.935146,8.627323,14.0,14,-0.0689169
4.512117,-2.8469336,-0.09312604,36.0,7,-0.0689146
42.18551,-26.627367,13.366969,21.0,15,-0.0689123
2.0535338,-1.2996955,-0.65118873,46.0,0,-0.06889156
5.3050923,-3.3589263,0.10960111,56.0,8,-0.06888925
2.2373033,-1.4170986,-0.611417,56.0,1,-0.06888695
6.8968177,-4.370103,0.42789882,30.0,9,-0.06888465
2.452721,-1.5541434,-0.5644131,35.0,2,-0.068882346
9.354624,-5.929756,0.9689976,27.0,10,-0.06888004
2.6891952,-1.7052988,-0.50434476,47.0,3,-0.068877734
17.769976,-11.272819,2.5838742,22.0,11,-0.06887543
3.0001636,-1.9039614,-0.4362923,33.0,4,-0.06887313
42.82105,-27.185547,8.033537,13.0,12,-0.06887082
3.338487,-2.1203034,-0.3460083,31.0,5,-0.06886852
3.9143836,-2.4870195,-0.24304819,36.0,6,-0.06886391
41.79211,-26.56302,11.432463,18.0,14,-0.06886161
4.436341,-2.820821,-0.091764756,24.0,7,-0.0688593
41.57395,-26.444742,13.20236,20.0,15,-0.068857
2.053642,-1.3103309,-0.6527417,47.0,0,-0.068836264
5.401225,-3.4462633,0.111835025,63.0,8,-0.06883396
2.2372708,-1.4280452,-0.6127667,49.0,1,-0.06883165
6.812504,-4.350079,0.4236073,31.0,9,-0.06882935
2.455281,-1.5684069,-0.56632113,46.0,2,-0.06882705
9.388229,-5.9994063,0.97474986,33.0,10,-0.068824746
2.7028987,-1.7279114,-0.5080992,45.0,3,-0.068822436
17.763968,-11.356163,2.5887487,22.0,11,-0.068820134
3.011895,-1.9261869,-0.43897343,49.0,4,-0.06881783
42.22337,-27.013357,7.93905,12.0,12,-0.06881553
3.3864434,-2.1673868,-0.35176057,32.0,5,-0.06881323
42.409565,-27.153349,9.788502,30.0,13,-0.06881092
3.9102874,-2.5045812,-0.24336222,30.0,6,-0.068808615
31.18512,-19.98208,8.550839,25.0,14,-0.06880631
4.45509,-2.8546298,-0.092358135,30.0,7,-0.06880401
30.742254,-19.705883,9.784395,18.0,15,-0.0688017
2.0604303,-1.3248049,-0.6563651,46.0,0,-0.068780966
5.4070573,-3.477936,0.112218976,54.0,8,-0.068778664
2.238577,-1.4404535,-0.61456627,45.0,1,-0.06877636
6.82751,-4.3932867,0.42549136,31.0,9,-0.06877405
2.444839,-1.5737801,-0.56517625,43.0,2,-0.06877175
9.358855,-6.026747,0.97387826,30.0,10,-0.06876945
2.726742,-1.7565919,-0.5137308,49.0,3,-0.068767145
17.758936,-11.444852,2.5941112,24.0,11,-0.06876484
3.0181623,-1.9458185,-0.44092333,50.0,4,-0.06876253
3.412344,-2.2007916,-0.3552468,38.0,5,-0.06875793
42.373913,-27.339535,9.80224,30.0,13,-0.06875563
3.8847404,-2.5073845,-0.2423155,31.0,6,-0.06875332
41.57149,-26.842373,11.424364,18.0,14,-0.068751015
4.487097,-2.8972816,-0.09323076,27.0,7,-0.06874871
30.702492,-19.83194,9.793713,18.0,15,-0.06874641
2.0557933,-1.331989,-0.6563651,45.0,0,-0.06872567
5.388782,-3.4914982,0.11207936,54.0,8,-0.068723366
2.2419643,-1.4531687,-0.6168158,50.0,1,-0.06872106
6.885868,-4.4649034,0.43009692,28.0,9,-0.06871876
2.432742,-1.5780307,-0.56364983,38.0,2,-0.06871646
9.376202,-6.084324,0.9778874,19.0,10,-0.06871415
2.7308447,-1.7720761,-0.5156081,45.0,3,-0.06871185
17.188076,-11.157802,2.5161147,19.0,11,-0.068709545
3.0150228,-1.9579787,-0.4414108,45.0,4,-0.06870724
45.297066,-29.427496,8.555402,15.0,12,-0.06870493
3.4129941,-2.2181184,-0.35611835,47.0,5,-0.06870263
42.32911,-27.509857,9.812925,30.0,13,-0.06870033
3.9065447,-2.5398488,-0.2441996,31.0,6,-0.068698026
41.65051,-27.089518,11.470704,25.0,14,-0.06869572
4.4451094,-2.892206,-0.09256756,30.0,7,-0.068693414
31.615862,-20.578682,10.107919,9.0,15,-0.06869111
2.0562184,-1.3419665,-0.65791804,43.0,0,-0.06867038
5.383259,-3.51466,0.112218976,51.0,8,-0.068668075
2.2336152,-1.4588544,-0.615916,56.0,1,-0.068665765
6.8869596,-4.499837,0.4311436,28.0,9,-0.06866346
2.4340699,-1.590385,-0.56517625,37.0,2,-0.06866116
9.584454,-6.2647247,1.0017681,24.0,10,-0.06865886
2.7196822,-1.7783549,-0.5146695,50.0,3,-0.06865655
17.34505,-11.345961,2.5448759,17.0,11,-0.06865425
3.014814,-1.9728389,-0.44238573,38.0,4,-0.068651944
3.455629,-2.2621617,-0.3613477,47.0,5,-0.06864733
42.259106,-27.674656,9.819032,30.0,13,-0.06864503
3.917703,-2.5666037,-0.24545565,38.0,6,-0.06864273
42.869392,-28.095705,11.833325,14.0,14,-0.068640426
4.5102406,-2.9570432,-0.09413828,31.0,7,-0.068638116
31.624609,-20.741894,10.133801,9.0,15,-0.068635814
2.0628204,-1.3565663,-0.6615415,46.0,0,-0.06861508
5.4277577,-3.5707974,0.113405734,58.0,8,-0.06861278
2.2236257,-1.4634283,-0.61456627,49.0,1,-0.068610474
6.9646297,-4.5853543,0.43700528,30.0,9,-0.068608165
2.4498208,-1.6129063,-0.5701373,44.0,2,-0.06860586
9.510945,-6.2641697,0.9963644,22.0,10,-0.06860356
2.7085094,-1.7845768,-0.5137308,45.0,3,-0.06860126
18.019697,-11.877288,2.6499274,21.0,11,-0.06859895
3.014538,-1.9877214,-0.44336072,45.0,4,-0.068596646
3.4443853,-2.2720163,-0.36099908,43.0,5,-0.06859204
3.9137204,-2.583564,-0.24576966,39.0,6,-0.06858743
42.8296,-28.283836,11.849522,42.0,14,-0.06858513
4.5432715,-3.0014277,-0.095045805,33.0,7,-0.068582825
41.019066,-27.108767,13.174408,20.0,15,-0.06858052
2.0612931,-1.3658928,-0.6625768,46.0,0,-0.06855978
5.4619293,-3.6206584,0.11438307,72.0,8,-0.06855748
2.199015,-1.4582573,-0.60916746,50.0,1,-0.068555176
7.031798,-4.664842,0.4422389,31.0,9,-0.068552874
2.4376316,-1.6171067,-0.56861085,39.0,2,-0.068550564
9.542144,-6.3325863,1.0019424,19.0,10,-0.06854826
2.7022636,-1.79402,-0.5137308,46.0,3,-0.06854596
18.11207,-12.029074,2.6696699,26.0,11,-0.06854366
3.0075812,-1.998232,-0.44336072,38.0,4,-0.06854135
44.637653,-29.668419,8.489074,15.0,12,-0.068539046
3.4463892,-2.2906427,-0.36204496,43.0,5,-0.06853674
3.9479158,-2.6259696,-0.24849114,50.0,6,-0.06853214
43.196236,-28.743,11.978644,14.0,14,-0.06852983
4.5627303,-3.0372136,-0.0956741,28.0,7,-0.06852753
40.888813,-27.228226,13.163019,20.0,15,-0.068525225
2.050086,-1.3687887,-0.6605062,46.0,0,-0.06850449
5.4791894,-3.6596937,0.11501136,56.0,8,-0.06850218
2.2084937,-1.4756684,-0.6132166,45.0,1,-0.06849988
7.0154715,-4.6893597,0.4422389,31.0,9,-0.068497576
2.438501,-1.6299698,-0.5701373,41.0,2,-0.06849527
9.057894,-6.056865,0.95330954,13.0,10,-0.068492964
2.7058365,-1.810032,-0.5156081,41.0,3,-0.06849066
18.093067,-12.107682,2.6730826,26.0,11,-0.06848836
2.9939895,-2.0043013,-0.44238573,38.0,4,-0.06848606
37.76175,-25.28883,7.1981764,10.0,12,-0.068483755
3.4466493,-2.3082018,-0.3629165,40.0,5,-0.068481445
3.9536576,-2.649742,-0.24943319,44.0,6,-0.06847684
42.86256,-28.737337,11.913857,14.0,14,-0.06847454
4.5172253,-3.0297303,-0.09494109,30.0,7,-0.06847223
40.99565,-27.506409,13.228242,20.0,15,-0.06846993
2.0468986,-1.377015,-0.66102386,47.0,0,-0.06844919
5.494584,-3.6977777,0.11560474,60.0,8,-0.06844689
2.2194946,-1.4942516,-0.6177156,50.0,1,-0.06844458
7.018938,-4.727207,0.44349492,40.0,9,-0.06844228
2.418141,-1.6286014,-0.5667027,38.0,2,-0.068439975
9.309334,-6.272135,0.9820709,16.0,10,-0.06843767
2.7322624,-1.841547,-0.5218654,45.0,3,-0.06843537
18.304165,-12.341666,2.710618,27.0,11,-0.06843306
2.986975,-2.01474,-0.44238573,39.0,4,-0.06843076
3.4237075,-2.3101892,-0.3613477,45.0,5,-0.068426155
3.9493499,-2.6668801,-0.24974722,37.0,6,-0.06842154
43.03489,-29.071133,11.989891,14.0,14,-0.06841924
4.4767985,-3.0253263,-0.09431281,25.0,7,-0.06841694
41.561974,-28.097273,13.442544,22.0,15,-0.06841463
2.0420794,-1.3841517,-0.66102386,48.0,0,-0.06839389
5.5048146,-3.732647,0.11609341,58.0,8,-0.06839159
2.2078145,-1.4976141,-0.615916,45.0,1,-0.06838929
7.078418,-4.8032665,0.4483098,46.0,9,-0.06838699
2.4368095,-1.6535681,-0.57242703,49.0,2,-0.06838468
9.56762,-6.4948273,1.0117038,22.0,10,-0.068382375
2.7094758,-1.8399757,-0.5187368,46.0,3,-0.06838007
18.357853,-12.471299,2.7249987,30.0,11,-0.06837777
3.0144024,-2.0485857,-0.44750425,46.0,4,-0.06837546
44.84074,-30.485178,8.58794,15.0,12,-0.06837316
3.4139745,-2.321006,-0.3611734,36.0,5,-0.06837086
3.9383652,-2.6795259,-0.24964255,44.0,6,-0.068366244
37.152885,-25.287006,10.375642,5.0,14,-0.06836394
4.53894,-3.090454,-0.09584861,25.0,7,-0.06836164
36.973835,-25.18403,11.986946,15.0,15,-0.06835934
2.0372355,-1.3912715,-0.66102386,49.0,0,-0.0683386
5.51817,-3.7698877,0.116651885,57.0,8,-0.06833629
2.2090087,-1.50971,-0.6177156,48.0,1,-0.06833399
7.0863395,-4.8448553,0.44987994,45.0,9,-0.06833169
2.439126,-1.6676046,-0.5743351,50.0,2,-0.06832939
9.40675,-6.433704,0.99706167,22.0,10,-0.06832708
2.7193396,-1.8605769,-0.5218654,49.0,3,-0.068324775
18.422323,-12.609304,2.7410855,22.0,11,-0.06832247
3.0170608,-2.0658245,-0.4489667,37.0,4,-0.06832017
3.4190023,-2.3419163,-0.3625679,40.0,5,-0.06831556
3.9256935,-2.6909986,-0.24943319,44.0,6,-0.06831095
41.863377,-28.7074,11.719049,27.0,14,-0.068308644
4.4522705,-3.0542438,-0.09424299,25.0,7,-0.06830634
36.850655,-25.28889,11.975557,15.0,15,-0.06830404
2.0355496,-1.4005641,-0.6620591,49.0,0,-0.068283305
5.54451,-3.816338,0.1174896,64.0,8,-0.068281
2.219776,-1.5284635,-0.6222146,48.0,1,-0.06827869
7.0677404,-4.868428,0.44977528,36.0,9,-0.06827639
2.439757,-1.680563,-0.5758616,50.0,2,-0.06827409
9.305486,-6.412236,0.9886947,22.0,10,-0.068271786
2.7160814,-1.8722998,-0.52249116,46.0,3,-0.06826948
18.575933,-12.809894,2.770578,27.0,11,-0.068267174
3.0098312,-2.0763435,-0.4489667,46.0,4,-0.06826487
3.4206455,-2.3606262,-0.36361378,40.0,5,-0.06826026
42.378155,-29.256567,10.009841,31.0,13,-0.06825796
3.92778,-2.7126305,-0.2501659,39.0,6,-0.068255655
41.839874,-28.906527,11.740645,6.0,14,-0.06825335
4.5337043,-3.1334355,-0.096197665,29.0,7,-0.06825105
2.0338235,-1.4098622,-0.6630944,48.0,0,-0.06822801
5.560733,-3.8561797,0.118117884,68.0,8,-0.068225704
2.2224329,-1.5417565,-0.6244641,53.0,1,-0.0682234
7.090083,-4.9203987,0.45228738,40.0,9,-0.06822109
2.433876,-1.6890692,-0.5758616,51.0,2,-0.06821879
9.410705,-6.533305,1.0022911,19.0,10,-0.06821649
2.7062843,-1.8795158,-0.5218654,45.0,3,-0.068214186
18.6224,-12.9380865,2.7842271,28.0,11,-0.068211876
3.0107155,-2.0925016,-0.4501854,45.0,4,-0.06820957
44.071415,-30.641838,8.501589,15.0,12,-0.06820727
3.4123845,-2.3725522,-0.36361378,41.0,5,-0.06820497
42.25321,-29.388622,10.004498,31.0,13,-0.06820267
3.931403,-2.7354498,-0.25100327,42.0,6,-0.06820036
43.854763,-30.52528,12.335866,15.0,14,-0.068198055
4.5210977,-3.1480994,-0.09616276,30.0,7,-0.06819575
2.0320578,-1.4191654,-0.66412973,49.0,0,-0.06817271
5.5341244,-3.8664055,0.11783865,61.0,8,-0.068170406
2.2202322,-1.5517377,-0.62536395,40.0,1,-0.0681681
7.0695915,-4.942829,0.45207804,35.0,9,-0.0681658
2.4311833,-1.6998047,-0.5766248,52.0,2,-0.0681635
9.284984,-6.494172,0.9913094,41.0,10,-0.06816119
2.7045627,-1.8923485,-0.5228041,50.0,3,-0.06815889
18.679583,-13.074724,2.799583,23.0,11,-0.068156585
2.9806275,-2.0870578,-0.44677305,38.0,4,-0.06815428
3.4040818,-2.3844492,-0.36361378,37.0,5,-0.06814967
3.9479978,-2.7674994,-0.252678,45.0,6,-0.06814507
43.81017,-30.721813,12.353413,7.0,14,-0.06814276
4.5100813,-3.1638618,-0.09616276,34.0,7,-0.068140455
46.88769,-32.90434,15.348488,36.0,15,-0.06813815
2.033411,-1.4306966,-0.6662002,47.0,0,-0.06811742
5.5434885,-3.9018128,0.11832731,59.0,8,-0.068115115
2.210022,-1.5561125,-0.62401426,50.0,1,-0.068112805
7.102152,-5.0007405,0.45521817,40.0,9,-0.0681105
2.4380755,-1.7173252,-0.57967776,50.0,2,-0.0681082
9.317633,-6.565563,0.99723595,30.0,10,-0.0681059
2.7043989,-1.90633,-0.52405554,54.0,3,-0.06810359
18.723053,-13.202767,2.8129883,31.0,11,-0.06810129
2.9781904,-2.1008825,-0.44750425,37.0,4,-0.068098985
44.04583,-31.070919,8.537255,15.0,12,-0.06809668
3.3729477,-2.3802342,-0.3611734,35.0,5,-0.06809437
3.9334188,-2.777807,-0.252364,44.0,6,-0.06808977
43.38434,-30.649664,12.263432,7.0,14,-0.068087466
4.546929,-3.2122617,-0.097175,26.0,7,-0.06808516
2.0268285,-1.4366684,-0.6656826,50.0,0,-0.06806212
5.537044,-3.9248,0.11846693,59.0,8,-0.06805982
2.217567,-1.5724503,-0.6276135,56.0,1,-0.068057515
7.104202,-5.039368,0.45647424,35.0,9,-0.068055205
2.432066,-1.7258253,-0.57967776,50.0,2,-0.0680529
9.405135,-6.676472,1.0090892,27.0,10,-0.0680506
2.7045057,-1.9198614,-0.525307,48.0,3,-0.0680483
18.564255,-13.183179,2.795683,26.0,11,-0.06804599
2.985772,-2.1210935,-0.4496979,45.0,4,-0.06804369
45.120594,-32.06553,8.767214,32.0,12,-0.068041384
3.401967,-2.418546,-0.36518255,32.0,5,-0.06803908
43.007618,-30.57522,10.25713,32.0,13,-0.06803677
3.9127922,-2.7827327,-0.2516313,39.0,6,-0.06803447
42.01533,-29.891867,11.904409,7.0,14,-0.06803217
4.507992,-3.208402,-0.09658162,30.0,7,-0.068029866
2.0330598,-1.4512385,-0.6693061,49.0,0,-0.06800682
5.546094,-3.9603732,0.118955605,59.0,8,-0.06800452
2.1898644,-1.564323,-0.6213148,44.0,1,-0.06800222
7.179192,-5.1303267,0.46244055,45.0,9,-0.067999914
2.437511,-1.741871,-0.58234906,46.0,2,-0.067997605
9.452639,-6.7574472,1.0165845,24.0,10,-0.0679953
2.6993942,-1.9304395,-0.52561986,46.0,3,-0.067993
18.768372,-13.426926,2.8334625,28.0,11,-0.0679907
2.9977212,-2.1453664,-0.45262277,52.0,4,-0.06798839
44.390007,-31.78012,8.64676,15.0,12,-0.067986086
3.4198482,-2.4483707,-0.36797154,32.0,5,-0.067983784
3.9225376,-2.8103328,-0.25288737,37.0,6,-0.06797917
44.20426,-31.682163,12.555868,8.0,14,-0.06797687
4.5487695,-3.2614045,-0.09769857,34.0,7,-0.06797457
2.0295503,-1.4594543,-0.6698237,45.0,0,-0.06795153
5.5565853,-3.9972248,0.11947917,52.0,8,-0.06794922
2.2223527,-1.599276,-0.6321125,48.0,1,-0.06794692
7.1725864,-5.1635237,0.46317327,42.0,9,-0.067944616
2.4091094,-1.7343105,-0.57700646,46.0,2,-0.067942314
9.648873,-6.948752,1.040291,33.0,10,-0.067940004
2.6766117,-1.9283036,-0.52249116,41.0,3,-0.0679377
18.790636,-13.542264,2.843943,21.0,11,-0.0679354
3.0030963,-2.1651046,-0.4545727,57.0,4,-0.0679331
51.001453,-36.78341,9.9595585,26.0,12,-0.06793079
3.4128969,-2.4614587,-0.36814582,31.0,5,-0.067928486
3.9175627,-2.8275144,-0.2532014,35.0,6,-0.06792388
44.279835,-31.970879,12.608956,8.0,14,-0.06792158
4.516283,-3.2620416,-0.09724481,32.0,7,-0.06791927
2.0197499,-1.4631298,-0.66827077,43.0,0,-0.06789623
5.53936,-4.0142503,0.11940937,47.0,8,-0.06789393
2.2183342,-1.6081675,-0.63256234,43.0,1,-0.06789162
7.201407,-5.222533,0.46620873,45.0,9,-0.06788932
2.4345186,-1.7661859,-0.5846388,47.0,2,-0.067887016
9.566502,-6.9402714,1.0340157,19.0,10,-0.06788471
2.6730618,-1.9399552,-0.5231169,46.0,3,-0.067882404
18.87176,-13.701072,2.8634422,24.0,11,-0.0678801
2.9858832,-2.168575,-0.45311025,51.0,4,-0.0678778
43.936935,-31.92205,8.6017065,15.0,12,-0.0678755
3.4086876,-2.4774654,-0.36866876,33.0,5,-0.067873195
3.9136338,-2.846553,-0.25362006,38.0,6,-0.06786858
43.181416,-31.407688,12.327318,7.0,14,-0.06786628
4.550144,-3.3107295,-0.098222144,32.0,7,-0.06786398
43.685043,-31.797325,14.47782,29.0,15,-0.06786167
2.0268562,-1.4796351,-0.67241186,42.0,0,-0.067840934
5.550449,-4.0533953,0.11996785,45.0,8,-0.06783863
2.220293,-1.622035,-0.6348119,50.0,1,-0.06783633
7.204793,-5.2653904,0.46767417,45.0,9,-0.06783403
2.4232743,-1.7716209,-0.58349395,54.0,2,-0.06783172
9.688972,-7.0834675,1.0500524,19.0,10,-0.067829415
2.6723113,-1.9544044,-0.5243684,41.0,3,-0.06782711
18.730099,-13.703341,2.8495493,16.0,11,-0.06782481
2.9891284,-2.1877112,-0.45481643,56.0,4,-0.0678225
43.95352,-32.180893,8.627988,15.0,12,-0.0678202
3.425302,-2.5087786,-0.37145776,33.0,5,-0.0678179
43.18327,-31.640112,10.40596,33.0,13,-0.067815594
3.906396,-2.8632395,-0.25382942,34.0,6,-0.067813285
43.198036,-31.662516,12.365109,7.0,14,-0.06781098
4.5315285,-3.3226545,-0.09808253,30.0,7,-0.06780868
43.69906,-32.053204,14.521302,30.0,15,-0.06780638
2.0120826,-1.4801854,-0.6693061,35.0,0,-0.06778564
5.5452185,-4.0808225,0.12017727,47.0,8,-0.06778333
2.2064862,-1.6243855,-0.63256234,53.0,1,-0.06778103
7.2160015,-5.3142653,0.4696629,46.0,9,-0.06777873
2.4199257,-1.7828197,-0.5842571,51.0,2,-0.06777643
9.765606,-7.194566,1.0612082,22.0,10,-0.06777412
2.646048,-1.9501219,-0.52061397,43.0,3,-0.067771815
19.063217,-14.054613,2.9080465,19.0,11,-0.06776951
2.995468,-2.2092566,-0.4570101,52.0,4,-0.06776721
45.27224,-33.40197,8.910821,16.0,12,-0.0677649
3.4289083,-2.5307815,-0.37285227,43.0,5,-0.0677626
3.8958755,-2.8775384,-0.25382942,31.0,6,-0.067757994
43.93913,-32.453945,12.611206,16.0,14,-0.067755684
4.545053,-3.3582547,-0.09864101,27.0,7,-0.06775338
2.0268192,-1.5025061,-0.6760354,32.0,0,-0.067730345
5.584836,-4.1416183,0.121364035,57.0,8,-0.06772804
2.2083433,-1.638267,-0.6348119,51.0,1,-0.06772573
7.2333646,-5.3680534,0.47207037,52.0,9,-0.06772343
2.4181044,-1.795188,-0.585402,45.0,2,-0.06772113
9.623991,-7.1447997,1.0486579,22.0,10,-0.067718826
2.6642566,-1.9786515,-0.52561986,45.0,3,-0.06771652
19.172514,-14.243959,2.9326642,23.0,11,-0.067714214
2.9730113,-2.2095635,-0.45481643,41.0,4,-0.06771191
44.559795,-33.129242,8.794434,16.0,12,-0.06770961
3.424406,-2.5468993,-0.3733752,51.0,5,-0.0677073
43.123444,-32.08472,10.447938,33.0,13,-0.067705
3.9029267,-2.904915,-0.2549808,34.0,6,-0.067702696
43.593212,-32.44606,12.54597,8.0,14,-0.06770039
4.5712085,-3.4035516,-0.099478714,26.0,7,-0.06769809
36.521996,-27.20283,12.202284,16.0,15,-0.06769578
2.0267339,-1.5123322,-0.6775883,31.0,0,-0.06767845
5.5637846,-4.153162,0.12118951,54.0,8,-0.06767615
2.2063084,-1.6475288,-0.63571167,51.0,1,-0.06767385
7.237265,-5.40629,0.4734311,50.0,9,-0.06767154
2.417486,-1.8058796,-0.5865469,50.0,2,-0.067669235
9.566385,-7.1487613,1.044823,21.0,10,-0.06766693
2.6643562,-1.9917428,-0.5268714,47.0,3,-0.06766463
19.161055,-14.329086,2.9377825,20.0,11,-0.06766232
2.989898,-2.2367294,-0.4584725,49.0,4,-0.06766002
44.585186,-33.366116,8.820089,32.0,12,-0.06765772
3.410453,-2.552273,-0.37267792,43.0,5,-0.067655414
3.860719,-2.891341,-0.2527827,33.0,6,-0.0676508
44.227192,-33.134354,12.758325,8.0,14,-0.0676485
4.53329,-3.397508,-0.098885335,30.0,7,-0.0676462
36.41162,-27.298891,12.194001,16.0,15,-0.06764389
2.0260751,-1.5228797,-0.67914116,44.0,0,-0.06762315
5.597202,-4.2086115,0.122236654,57.0,8,-0.06762085
2.2067735,-1.6599058,-0.63751125,58.0,1,-0.06761855
7.231117,-5.441126,0.47426847,41.0,9,-0.06761625
2.419011,-1.8202091,-0.58845496,49.0,2,-0.06761394
9.375824,-7.0574956,1.0266947,22.0,10,-0.067611635
2.6636994,-2.005784,-0.52812284,41.0,3,-0.06760933
19.060184,-14.357663,2.9299831,20.0,11,-0.06760703
3.0010965,-2.2614882,-0.46139738,52.0,4,-0.06760472
45.34863,-34.185055,8.99467,17.0,12,-0.06760242
3.3872044,-2.5533686,-0.37110916,40.0,5,-0.067600116
3.9319198,-2.9661431,-0.25812095,34.0,6,-0.067595504
44.00082,-33.205185,12.72638,17.0,14,-0.0675932
4.518211,-3.410902,-0.09881552,29.0,7,-0.0675909
43.34593,-32.734722,14.55443,30.0,15,-0.0675886
2.0284479,-1.5357734,-0.6817294,47.0,0,-0.06756786
5.5904474,-4.2341604,0.122411184,57.0,8,-0.06756555
2.2009661,-1.6675985,-0.63751125,52.0,1,-0.06756325
7.2225857,-5.4723125,0.47489652,38.0,9,-0.06756095
2.4251597,-1.8381293,-0.5915079,51.0,2,-0.067558646
9.5606985,-7.249078,1.0497037,22.0,10,-0.06755634
2.6598291,-2.0174575,-0.5287486,49.0,3,-0.067554034
19.161762,-14.539298,2.953382,17.0,11,-0.06755173
2.9900215,-2.2695498,-0.46090987,57.0,4,-0.06754943
39.710648,-30.142023,7.896187,76.0,12,-0.06754712
3.384618,-2.5699959,-0.37180638,41.0,5,-0.06754482
3.9263132,-2.983475,-0.25843498,30.0,6,-0.06754021
43.063957,-32.734734,12.488382,8.0,14,-0.06753791
4.529163,-3.442808,-0.09930419,30.0,7,-0.0675356
2.0230746,-1.5428447,-0.6817294,47.0,0,-0.067512564
5.597047,-4.2684402,0.12286495,57.0,8,-0.06751026
2.1799304,-1.6630683,-0.6330123,48.0,1,-0.06750795
7.2097907,-5.502338,0.4753152,33.0,9,-0.06750565
2.4093657,-1.8394355,-0.5892182,48.0,2,-0.06750335
9.720595,-7.4238954,1.0700982,30.0,10,-0.067501046
2.6578343,-2.0298636,-0.52968717,50.0,3,-0.067498736
19.268028,-14.720865,2.9772682,17.0,11,-0.067496434
2.9840565,-2.2806582,-0.46115363,49.0,4,-0.06749413
39.495342,-30.196466,7.874286,75.0,12,-0.06749183
3.3930347,-2.5951095,-0.3737238,50.0,5,-0.06748953
43.395813,-33.19061,10.619666,34.0,13,-0.06748722
3.9370186,-3.0122561,-0.25979573,35.0,6,-0.067484915
44.056976,-33.72067,12.808713,8.0,14,-0.06748261
4.5568113,-3.4889886,-0.10017681,29.0,7,-0.06748031
36.28195,-27.789852,12.245765,16.0,15,-0.067478
2.0240765,-1.5542514,-0.6838,47.0,0,-0.067457266
5.653475,-4.3427687,0.124435656,52.0,8,-0.067454964
2.167931,-1.665918,-0.63121265,43.0,1,-0.06745266
7.2538795,-5.576161,0.47950208,35.0,9,-0.06745035
2.406366,-1.8498081,-0.58998144,55.0,2,-0.06744805
9.784369,-7.524103,1.0798596,49.0,10,-0.06744575
2.6679554,-2.0523777,-0.53312874,55.0,3,-0.067443445
19.734106,-15.186336,3.0574584,21.0,11,-0.06744114
2.9697855,-2.286217,-0.4601787,48.0,4,-0.06743883
45.012993,-34.664673,8.998425,17.0,12,-0.06743653
3.3907244,-2.6112094,-0.37442106,43.0,5,-0.06743423
43.345016,-33.39221,10.635694,34.0,13,-0.06743193
3.9771037,-3.064994,-0.2631452,43.0,6,-0.06742962
44.221436,-34.091988,12.891046,17.0,14,-0.067427315
4.544605,-3.5048735,-0.10017681,27.0,7,-0.06742501
2.0033576,-1.5494878,-0.6786236,43.0,0,-0.06740197
5.7157784,-4.4224377,0.12614599,59.0,8,-0.067399666
2.1790545,-1.6865958,-0.63616157,44.0,1,-0.06739736
7.250162,-5.6136756,0.48054877,45.0,9,-0.06739506
2.3952372,-1.8545909,-0.5888366,50.0,2,-0.06739276
9.764347,-7.563091,1.0805569,41.0,10,-0.06739045
2.6810744,-2.0774071,-0.53719604,51.0,3,-0.06738815
19.851992,-15.387688,3.0840259,18.0,11,-0.067385845
2.9853177,-2.3148158,-0.46383476,38.0,4,-0.06738354
44.829285,-34.773155,8.985909,17.0,12,-0.06738123
3.375292,-2.6181448,-0.3737238,48.0,5,-0.06737893
3.979002,-3.0886557,-0.2639826,40.0,6,-0.06737433
4.582877,-3.559971,-0.10129377,32.0,7,-0.067369714
1.9964126,-1.5552844,-0.67810595,45.0,0,-0.06734668
5.681379,-4.4276123,0.12572713,59.0,8,-0.067344375
2.1731536,-1.6941918,-0.63616157,44.0,1,-0.067342065
7.2919455,-5.686851,0.484631,45.0,9,-0.06733976
2.3980377,-1.8701843,-0.59112626,55.0,2,-0.06733746
9.75988,-7.614287,1.0829972,38.0,10,-0.06733516
2.6675775,-2.0818913,-0.5359445,49.0,3,-0.06733285
19.813805,-15.469107,3.0864635,9.0,11,-0.06733055
2.9834776,-2.3301094,-0.46480972,39.0,4,-0.067328244
3.3755524,-2.6372707,-0.3747697,45.0,5,-0.06732363
3.971343,-3.1049864,-0.26419193,40.0,6,-0.06731903
44.068314,-34.46711,12.91624,17.0,14,-0.067316726
4.5924716,-3.593198,-0.10178243,29.0,7,-0.067314416
1.9894518,-1.561051,-0.6775883,48.0,0,-0.06729138
5.7162247,-4.4869275,0.1268441,49.0,8,-0.06728908
2.1672268,-1.7017672,-0.63616157,40.0,1,-0.067286775
7.300321,-5.734477,0.4865151,45.0,9,-0.067284465
2.3914948,-1.8785436,-0.59112626,52.0,2,-0.06728216
9.7113085,-7.6310744,1.0805569,35.0,10,-0.06727986
2.64787,-2.081424,-0.5334416,52.0,3,-0.06727756
19.989069,-15.718551,3.1222928,19.0,11,-0.06727525
3.0002894,-2.360147,-0.46870953,45.0,4,-0.067272946
3.366326,-2.6490376,-0.3747697,48.0,5,-0.06726834
3.9746032,-3.129951,-0.265134,42.0,6,-0.06726373
43.67984,-34.40969,12.837507,35.0,14,-0.06726143
4.581472,-3.6104445,-0.10181734,30.0,7,-0.067259125
1.9885373,-1.5715796,-0.67914116,50.0,0,-0.06723608
5.7758236,-4.5663824,0.12851952,57.0,8,-0.06723378
2.1337605,-1.6875626,-0.6280633,40.0,1,-0.06723148
7.291224,-5.7686,0.4872478,46.0,9,-0.067229174
2.3972402,-1.8966252,-0.5941792,51.0,2,-0.067226864
9.797097,-7.7539535,1.0931073,30.0,10,-0.06722456
2.6498806,-2.0980113,-0.5353188,54.0,3,-0.06722226
19.459461,-15.41232,3.0479527,18.0,11,-0.06721996
3.0029237,-2.379235,-0.4704157,40.0,4,-0.06721765
52.094772,-41.289806,10.528354,35.0,12,-0.067215346
3.353936,-2.6582966,-0.37442106,53.0,5,-0.06721304
3.9667826,-3.1462882,-0.2653433,48.0,6,-0.06720844
43.686165,-34.66249,12.874848,17.0,14,-0.06720613
4.5422144,-3.6052802,-0.10122395,29.0,7,-0.06720383
2.0026886,-1.5941521,-0.68587047,54.0,0,-0.06718079
5.8380647,-4.6487994,0.13026476,60.0,8,-0.06717848
2.1461477,-1.7095709,-0.6334622,44.0,1,-0.06717618
7.261671,-5.786548,0.48661977,42.0,9,-0.067173876
2.3936758,-1.9074286,-0.59494245,50.0,2,-0.06717157
9.9382305,-7.9222317,1.1119329,30.0,10,-0.067169264
2.6672523,-2.1269538,-0.54032475,59.0,3,-0.06716696
20.015408,-15.966654,3.1437418,16.0,11,-0.06716466
2.9992554,-2.3934171,-0.4711469,39.0,4,-0.06716236
3.3602068,-2.6824176,-0.37616417,45.0,5,-0.067157745
3.9370499,-3.1451564,-0.26408726,42.0,6,-0.06715314
43.654724,-34.886543,12.901393,26.0,14,-0.06715084
4.612384,-3.6872928,-0.10307391,22.0,7,-0.06714853
1.986561,-1.592674,-0.68224704,58.0,0,-0.06712549
5.8826404,-4.7179427,0.13162605,55.0,8,-0.06712319
2.1675277,-1.7390027,-0.64156044,44.0,1,-0.06712088
7.2570047,-5.824362,0.48766652,40.0,9,-0.06711858
2.3870032,-1.9157724,-0.59494245,54.0,2,-0.067116275
9.977323,-8.01051,1.1194284,22.0,10,-0.06711397
2.6690521,-2.1436732,-0.54220194,61.0,3,-0.06711167
19.755283,-15.872304,3.1115685,15.0,11,-0.06710936
2.983146,-2.3976538,-0.46992823,42.0,4,-0.06710706
3.3539286,-2.6966276,-0.3765128,47.0,5,-0.067102455
43.336857,-34.85618,10.810475,35.0,13,-0.067100145
3.9400523,-3.1701484,-0.2650293,43.0,6,-0.06709784
43.664757,-35.14502,12.940534,17.0,14,-0.06709554
4.6353087,-3.732215,-0.103876725,24.0,7,-0.06709324
1.9764802,-1.595958,-0.6806941,57.0,0,-0.06707019
5.90347,-4.7686057,0.13246377,60.0,8,-0.06706789
2.1735697,-1.7563564,-0.6451596,47.0,1,-0.06706559
7.2490554,-5.8597026,0.48850387,40.0,9,-0.06706329
2.3772473,-1.9216245,-0.5941792,55.0,2,-0.06706098
10.070142,-8.143005,1.1330247,22.0,10,-0.067058675
2.6538742,-2.1467648,-0.54063755,65.0,3,-0.06705637
20.127209,-16.287062,3.1790838,6.0,11,-0.06705407
2.991731,-2.4217913,-0.47260937,45.0,4,-0.06705176
3.3801079,-2.7371573,-0.38052195,41.0,5,-0.06704716
3.9165487,-3.173823,-0.26419193,46.0,6,-0.067042544
44.409225,-36.000393,13.198328,9.0,14,-0.06704024
4.659529,-3.778602,-0.104714446,26.0,7,-0.06703794
43.389286,-35.19869,14.970612,33.0,15,-0.06703564
1.9738947,-1.605285,-0.6817294,56.0,0,-0.0670149
5.9302225,-4.824518,0.1334411,72.0,8,-0.06701259
2.17196,-1.7676232,-0.6465093,41.0,1,-0.06701029
7.278121,-5.925322,0.4918534,41.0,9,-0.06700799
2.3766155,-1.9348692,-0.59570575,49.0,2,-0.06700569
10.091092,-8.218369,1.1386026,22.0,10,-0.06700338
2.647896,-2.1572635,-0.5409505,61.0,3,-0.067001075
20.005604,-16.304546,3.1688468,6.0,11,-0.06699877
2.9924903,-2.439746,-0.47407177,45.0,4,-0.06699647
44.110214,-35.975414,9.015319,17.0,12,-0.06699416
3.3828852,-2.759014,-0.3819165,33.0,5,-0.06699186
3.927109,-3.205155,-0.26565734,40.0,6,-0.066987254
44.399525,-36.250095,13.232971,19.0,14,-0.066984944
4.6710916,-3.8150823,-0.10527291,28.0,7,-0.06698264
46.000866,-37.584282,15.916854,39.0,15,-0.06698034
1.9772464,-1.6195103,-0.68483526,57.0,0,-0.066959605
5.953562,-4.8781414,0.13434863,65.0,8,-0.0669573
2.1552265,-1.7665466,-0.64336,47.0,1,-0.06695499
7.3407946,-6.0190754,0.49750566,37.0,9,-0.06695269
2.3728836,-1.945643,-0.5964689,52.0,2,-0.06695039
10.267224,-8.421596,1.1617861,27.0,10,-0.066948086
2.6388223,-2.16524,-0.54063755,58.0,3,-0.06694578
20.853859,-17.117365,3.3126528,28.0,11,-0.066943474
2.9732165,-2.4413586,-0.47236562,40.0,4,-0.06694117
3.4009464,-2.7935684,-0.38505405,32.0,5,-0.06693656
43.269806,-35.55487,10.886035,36.0,13,-0.06693426
3.9452121,-3.242941,-0.2676461,37.0,6,-0.066931956
44.396145,-36.506348,13.269862,19.0,14,-0.06692965
4.713342,-3.8770967,-0.10652949,28.0,7,-0.06692735
1.9700909,-1.625173,-0.6843176,51.0,0,-0.06690431
5.9719715,-4.928168,0.13515143,70.0,8,-0.066902004
2.1505501,-1.7752997,-0.6438099,48.0,1,-0.0668997
7.38134,-6.0955334,0.50169253,41.0,9,-0.06689739
2.360022,-1.9489135,-0.59494245,49.0,2,-0.06689509
10.265413,-8.480224,1.1649235,24.0,10,-0.06689279
2.6388617,-2.1807299,-0.54220194,51.0,3,-0.066890486
20.969929,-17.335505,3.3406827,29.0,11,-0.066888176
