x,y,z,intensity,ring,time
2.074187,-0.82248527,-0.5151379,48.0,1,-0.07602141
4.6805377,-1.8559912,0.26387793,32.0,9,-0.0760191
2.193509,-0.87024355,-0.45870483,41.0,2,-0.0760168
6.046245,-2.3999832,0.56912696,32.0,10,-0.0760145
2.4564295,-0.97554606,-0.41861868,46.0,3,-0.076012194
8.161387,-3.2428613,1.0783,56.0,11,-0.076009884
2.724767,-1.0826641,-0.36000207,41.0,4,-0.07600758
11.369966,-4.520062,1.9379103,39.0,12,-0.07600528
2.9232385,-1.1627069,-0.27523783,33.0,5,-0.07600298
22.903698,-9.114488,4.791596,14.0,13,-0.07600067
3.263982,-1.2995561,-0.18411791,37.0,6,-0.075998366
48.03651,-19.125761,11.936803,7.0,14,-0.07599606
3.6745782,-1.4637781,-0.06904172,25.0,7,-0.07599376
40.490932,-16.137861,11.679469,14.0,15,-0.07599145
1.9389863,-0.77553916,-0.5595668,54.0,0,-0.07597072
4.2051067,-1.6827741,0.0790594,39.0,8,-0.075968415
2.0768754,-0.83153194,-0.5164876,45.0,1,-0.07596611
4.766732,-1.9094526,0.2691115,37.0,9,-0.07596381
2.2215934,-0.8899236,-0.46519238,45.0,2,-0.0759615
6.016061,-2.411126,0.56703526,32.0,10,-0.0759592
2.4678485,-0.989568,-0.42112163,43.0,3,-0.075956896
8.167169,-3.2765594,1.0804937,22.0,11,-0.07595459
2.7320244,-1.0966054,-0.3614645,43.0,4,-0.075952284
11.377948,-4.5692925,1.9419776,39.0,12,-0.07594998
2.9193668,-1.1723943,-0.27523783,29.0,5,-0.07594768
23.121098,-9.289934,4.843496,29.0,13,-0.07594538
3.2837453,-1.3200572,-0.18547864,28.0,6,-0.07594307
40.478973,-16.280651,10.072859,9.0,14,-0.075940765
3.6768668,-1.4795821,-0.06918134,25.0,7,-0.07593846
43.31599,-17.43927,12.511831,17.0,15,-0.07593616
1.9129821,-0.7728949,-0.5528375,52.0,0,-0.075915426
4.182522,-1.6906976,0.07874525,34.0,8,-0.07591312
2.061314,-0.8336621,-0.51333827,39.0,1,-0.075910814
4.93037,-1.9950022,0.27874133,35.0,9,-0.07590851
2.2130136,-0.89546365,-0.46404752,39.0,2,-0.07590621
6.0242286,-2.43884,0.56860405,30.0,10,-0.0759039
2.4863498,-1.0070754,-0.42487606,46.0,3,-0.0759016
8.2311125,-3.335616,1.0904869,47.0,11,-0.075899296
2.6877077,-1.089726,-0.35610226,45.0,4,-0.07589699
11.310675,-4.5881906,1.9332174,28.0,12,-0.07589468
2.926334,-1.1870712,-0.27628368,32.0,5,-0.07589238
23.019402,-9.34253,4.8289943,14.0,13,-0.07589008
3.2587616,-1.323246,-0.18432724,44.0,6,-0.07588778
40.4562,-16.435785,10.081407,4.0,14,-0.075885475
3.6457446,-1.481866,-0.06869267,24.0,7,-0.075883165
43.408752,-17.652948,12.556348,17.0,15,-0.07588086
1.9353136,-0.78978676,-0.5600844,59.0,0,-0.07586013
4.185851,-1.7090666,0.07891978,36.0,8,-0.075857826
2.0475676,-0.83643067,-0.5106389,41.0,1,-0.075855516
4.8716097,-1.9910432,0.27581054,35.0,9,-0.07585321
2.2098744,-0.9031831,-0.46404752,41.0,2,-0.07585091
6.0488744,-2.4734273,0.5717417,30.0,10,-0.07584861
2.4206579,-0.9903172,-0.41423854,33.0,3,-0.0758463
8.195537,-3.3545523,1.0873184,36.0,11,-0.075844
2.707769,-1.108881,-0.35927087,33.0,4,-0.075841695
11.384157,-4.6643414,1.9485478,15.0,12,-0.07583939
2.9422421,-1.2061015,-0.27820113,25.0,5,-0.07583709
22.830427,-9.358786,4.796175,14.0,13,-0.07583478
3.224557,-1.3224871,-0.1826525,29.0,6,-0.07583248
45.352856,-18.60981,11.317738,6.0,14,-0.07583018
3.6276004,-1.4892669,-0.068448335,28.0,7,-0.075827874
41.79934,-17.168732,12.108073,15.0,15,-0.075825565
1.934192,-0.7976113,-0.56060207,55.0,0,-0.07580483
4.1909523,-1.7282416,0.07912921,37.0,8,-0.07580253
2.0464368,-0.8443161,-0.5110888,40.0,1,-0.075800225
4.835091,-1.9958432,0.27413577,35.0,9,-0.07579792
2.221066,-0.91727185,-0.46710047,46.0,2,-0.07579561
5.9937334,-2.4765596,0.5673839,45.0,10,-0.07579331
2.4845564,-1.0271055,-0.42581466,47.0,3,-0.07579101
8.185612,-3.3838983,1.0875622,38.0,11,-0.07578871
2.687372,-1.1114978,-0.3570772,32.0,4,-0.0757864
11.522954,-4.768252,1.9751418,33.0,12,-0.075784095
2.9582636,-1.224748,-0.28011855,27.0,5,-0.07578179
23.633951,-9.789504,4.9724827,15.0,13,-0.07577949
3.2289135,-1.3381201,-0.18317586,31.0,6,-0.07577718
45.251938,-18.762472,11.309639,24.0,14,-0.07577488
3.6445463,-1.5111109,-0.06886719,28.0,7,-0.075772576
41.814102,-17.345623,12.129813,16.0,15,-0.075770274
1.9099956,-0.7954455,-0.55439043,49.0,0,-0.07574954
4.2695,-1.77897,0.080734834,49.0,8,-0.07574723
2.052322,-0.8555602,-0.51333827,45.0,1,-0.07574493
4.83143,-2.0150888,0.2743451,35.0,9,-0.075742625
2.2124145,-0.92275196,-0.4659556,46.0,2,-0.07574032
6.0071163,-2.506674,0.5694756,42.0,10,-0.07573801
2.4864247,-1.038055,-0.42675328,49.0,3,-0.07573571
8.173154,-3.4138772,1.0875622,47.0,11,-0.07573341
2.7180805,-1.1358831,-0.36170825,44.0,4,-0.075731106
11.472596,-4.796738,1.9695101,18.0,12,-0.0757288
2.924346,-1.2232803,-0.27732956,36.0,5,-0.075726494
3.2150111,-1.3455276,-0.1826525,32.0,6,-0.07572189
49.288124,-20.637886,12.336316,23.0,14,-0.07571958
3.6445167,-1.5267769,-0.06897191,22.0,7,-0.07571728
41.436672,-17.367334,12.03871,15.0,15,-0.075714976
1.9070672,-0.80244064,-0.55439043,48.0,0,-0.07569424
4.255891,-1.7907602,0.08059521,43.0,8,-0.07569194
2.0349543,-0.8566701,-0.5097391,41.0,1,-0.07568963
4.8078012,-2.0249643,0.27340308,39.0,9,-0.07568733
2.2234912,-0.93695366,-0.46900854,47.0,2,-0.075685024
6.0052323,-2.53177,0.57017285,45.0,10,-0.07568272
2.4662225,-1.0402517,-0.42393744,49.0,3,-0.07568041
8.091684,-3.413069,1.0783,29.0,11,-0.07567811
2.7305589,-1.1523103,-0.36390188,48.0,4,-0.07567581
11.486719,-4.8498178,1.974829,15.0,12,-0.075673506
2.9384115,-1.2412336,-0.27907267,44.0,5,-0.075671196
23.81285,-10.063841,5.025146,23.0,13,-0.075668894
3.2045388,-1.3549687,-0.18233849,31.0,6,-0.07566659
47.413803,-20.057638,11.885514,64.0,14,-0.07566429
3.6281147,-1.5348148,-0.06876248,30.0,7,-0.07566199
1.91357,-0.81186813,-0.55697864,45.0,0,-0.07563543
4.1342783,-1.7548969,0.07839621,33.0,8,-0.07563313
2.0286655,-0.8615354,-0.5088393,41.0,1,-0.07563083
4.737429,-2.0118954,0.26973954,35.0,9,-0.07562852
2.231543,-0.94815314,-0.47129822,46.0,2,-0.07562622
6.0417,-2.5682836,0.5743563,42.0,10,-0.075623915
2.4740322,-1.0522032,-0.42581466,46.0,3,-0.07562161
8.053522,-3.4268146,1.074644,29.0,11,-0.0756193
2.7305787,-1.1624379,-0.3643894,48.0,4,-0.075617
11.637675,-4.954289,2.0033,22.0,12,-0.0756147
2.9750428,-1.2671226,-0.28290752,44.0,5,-0.075612396
23.898478,-10.183706,5.0495696,16.0,13,-0.07561009
3.2574596,-1.3887525,-0.18558332,24.0,6,-0.075607784
41.338474,-17.632353,10.375642,5.0,14,-0.07560548
3.7173526,-1.5855852,-0.070542626,33.0,7,-0.07560318
48.24617,-20.588686,14.055428,26.0,15,-0.07560087
1.8911909,-0.8101747,-0.5512846,47.0,0,-0.075580135
4.192771,-1.7961575,0.07961788,31.0,8,-0.07557783
2.0293798,-0.8697933,-0.5097391,39.0,1,-0.07557553
4.772597,-2.0465236,0.272147,39.0,9,-0.07557323
2.233632,-0.95825905,-0.4724431,43.0,2,-0.07557092
6.051007,-2.597216,0.57609946,32.0,10,-0.07556862
2.4632683,-1.0572852,-0.4245632,47.0,3,-0.075566314
8.025698,-3.4464526,1.0724503,29.0,11,-0.07556401
2.7321804,-1.1738373,-0.36512056,51.0,4,-0.0755617
11.961495,-5.1415377,2.0621192,26.0,12,-0.0755594
2.9834142,-1.2830096,-0.2841277,45.0,5,-0.0755571
24.136913,-10.380017,5.107194,24.0,13,-0.075554796
3.2876947,-1.4145446,-0.18757208,33.0,6,-0.075552486
41.18133,-17.726963,10.350898,10.0,14,-0.07555018
3.704449,-1.5953877,-0.07040301,33.0,7,-0.07554788
46.492096,-20.03228,13.564707,23.0,15,-0.07554558
1.8991333,-0.8210414,-0.55439043,43.0,0,-0.075524844
4.1662865,-1.8020499,0.07923393,42.0,8,-0.075522535
2.017389,-0.8730022,-0.50748956,44.0,1,-0.07552023
4.807579,-2.0814219,0.27455446,35.0,9,-0.07551793
2.216029,-0.9594207,-0.46939012,44.0,2,-0.07551563
6.040533,-2.6164756,0.5759251,30.0,10,-0.07551332
2.4323752,-1.0540953,-0.41987014,35.0,3,-0.075511016
8.254026,-3.5786796,1.1046238,42.0,11,-0.07550871
2.7189603,-1.1794174,-0.36390188,53.0,4,-0.07550641
11.843812,-5.140007,2.0449116,16.0,12,-0.0755041
2.9809706,-1.293689,-0.28430203,44.0,5,-0.0755018
24.161762,-10.490792,5.1201687,24.0,13,-0.0754995
3.2845688,-1.4268081,-0.18767676,32.0,6,-0.075497195
40.96907,-17.805357,10.313106,10.0,14,-0.07549489
3.6951895,-1.6067141,-0.0703332,31.0,7,-0.07549258
1.9033377,-0.8307567,-0.556461,42.0,0,-0.075469546
4.2131157,-1.8397894,0.080246165,43.0,8,-0.075467244
2.0357585,-0.8894011,-0.51288843,44.0,1,-0.075464934
4.809435,-2.10219,0.2750778,30.0,9,-0.07546263
2.227058,-0.9734405,-0.4724431,42.0,2,-0.07546033
6.035014,-2.6391418,0.5762738,32.0,10,-0.07545803
2.4703052,-1.0807904,-0.42706612,45.0,3,-0.07545572
8.243303,-3.6082659,1.1048675,49.0,11,-0.075453416
2.7330105,-1.1968644,-0.36633927,55.0,4,-0.07545111
12.00673,-5.260592,2.0761983,15.0,12,-0.07544881
2.9800866,-1.305686,-0.28465065,44.0,5,-0.07544651
24.38392,-10.688568,5.175122,24.0,13,-0.0754442
3.2832265,-1.4398689,-0.1878861,44.0,6,-0.0754419
41.056572,-18.014029,10.350898,10.0,14,-0.075439595
3.6181476,-1.5882556,-0.06897191,25.0,7,-0.07543729
39.679237,-17.426228,11.612176,14.0,15,-0.07543498
1.8951229,-0.8350586,-0.55490804,40.0,0,-0.07541425
4.2432632,-1.8706175,0.080944255,45.0,8,-0.075411946
2.0255094,-0.893356,-0.5110888,40.0,1,-0.07540964
4.9628677,-2.1899202,0.28428894,38.0,9,-0.07540733
2.2236464,-0.9812085,-0.4724431,46.0,2,-0.07540503
6.036701,-2.6650198,0.5773196,32.0,10,-0.07540273
2.443027,-1.0790317,-0.42299888,42.0,3,-0.07540043
8.205238,-3.6257858,1.1014552,49.0,11,-0.075398125
2.7469723,-1.2144238,-0.36877668,49.0,4,-0.075395815
12.053331,-5.3312364,2.0874617,14.0,12,-0.07539351
2.9698153,-1.3141809,-0.2841277,39.0,5,-0.07539121
24.525995,-10.853064,5.2132835,25.0,13,-0.07538891
3.2434812,-1.4359586,-0.18589734,23.0,6,-0.0753866
40.98453,-18.153286,10.348648,5.0,14,-0.0753843
3.6656,-1.6243705,-0.06998415,30.0,7,-0.075381994
39.51574,-17.519217,11.582153,14.0,15,-0.07537969
1.8902845,-0.84121364,-0.55439043,42.0,0,-0.07535895
4.096032,-1.8228146,0.07825659,33.0,8,-0.07535665
2.0508628,-0.913103,-0.51828724,47.0,1,-0.075354345
4.9351244,-2.198291,0.28313756,36.0,9,-0.07535204
2.2056892,-0.9829587,-0.46939012,40.0,2,-0.07534974
6.097861,-2.718769,0.58411777,35.0,10,-0.07534743
2.4498796,-1.0928067,-0.42487606,44.0,3,-0.07534513
8.259609,-3.684326,1.1104735,51.0,11,-0.07534283
2.7499673,-1.2272409,-0.36975163,50.0,4,-0.075340524
11.9661045,-5.3426747,2.0755727,11.0,12,-0.075338215
2.9979544,-1.3391664,-0.28726533,43.0,5,-0.07533591
24.695765,-11.036605,5.257933,17.0,13,-0.07533361
3.2947187,-1.4731089,-0.18914215,39.0,6,-0.07533131
40.988876,-18.33521,10.366645,5.0,14,-0.075329
3.7110183,-1.6600188,-0.07096148,32.0,7,-0.075326696
40.029186,-17.914305,11.750902,14.0,15,-0.075324394
1.906721,-0.8565144,-0.5600844,39.0,0,-0.07530366
4.2334166,-1.9025729,0.081014074,39.0,8,-0.07530136
2.0368383,-0.91581863,-0.5155878,43.0,1,-0.07529905
4.943815,-2.2228756,0.2840796,40.0,9,-0.075296745
2.2308917,-1.0035386,-0.47549605,42.0,2,-0.07529444
6.0737987,-2.7334967,0.58272326,32.0,10,-0.07529214
2.4496527,-1.1029738,-0.4255018,42.0,3,-0.07528983
8.24786,-3.7153897,1.1107173,47.0,11,-0.07528753
2.7400212,-1.2348648,-0.3690204,47.0,4,-0.075285226
12.066244,-5.43798,2.0962222,12.0,12,-0.075282924
3.000527,-1.3528987,-0.28796256,46.0,5,-0.075280614
24.882576,-11.224459,5.306017,17.0,13,-0.07527831
3.2222,-1.4542019,-0.18526931,28.0,6,-0.07527601
40.725704,-18.38836,10.316255,20.0,14,-0.07527371
3.730717,-1.6844832,-0.07145015,30.0,7,-0.0752714
40.519226,-18.303644,11.913442,15.0,15,-0.075269096
1.9318707,-0.8759289,-0.56836665,37.0,0,-0.07524836
4.217979,-1.9124724,0.08083955,36.0,8,-0.07524606
2.0462127,-0.92820334,-0.5187371,56.0,1,-0.075243756
4.948757,-2.245897,0.2848123,38.0,9,-0.07524145
2.232738,-1.0137547,-0.4766409,48.0,2,-0.075239144
5.9898453,-2.720897,0.5755765,30.0,10,-0.07523684
2.4603696,-1.1176269,-0.42800474,41.0,3,-0.07523454
8.240916,-3.7451842,1.1114485,51.0,11,-0.07523223
2.723262,-1.2381929,-0.36731425,48.0,4,-0.07522993
11.9806595,-5.449803,2.0846457,4.0,12,-0.075227626
3.0012262,-1.3658402,-0.2884855,46.0,5,-0.07522532
24.95958,-11.358956,5.3304405,17.0,13,-0.075223014
3.2973397,-1.5012944,-0.18987487,43.0,6,-0.07522071
32.253174,-14.69182,8.182369,39.0,14,-0.07521841
3.6775036,-1.6759349,-0.070542626,33.0,7,-0.07521611
1.9113877,-0.87429464,-0.5631903,32.0,0,-0.07519306
4.19673,-1.9205272,0.08056031,31.0,8,-0.07519076
2.0429604,-0.9353403,-0.5187371,51.0,1,-0.07518846
4.92636,-2.2565038,0.28397492,43.0,9,-0.075186156
2.211515,-1.0129774,-0.47282472,45.0,2,-0.075183846
6.093088,-2.7922068,0.5863838,30.0,10,-0.075181544
2.4564533,-1.1262082,-0.42800474,37.0,3,-0.07517924
8.253053,-3.7855144,1.1148609,51.0,11,-0.07517694
2.7225316,-1.2493472,-0.3678017,49.0,4,-0.07517463
12.008239,-5.513019,2.0927804,2.0,12,-0.07517233
2.9984913,-1.3766165,-0.2886598,41.0,5,-0.075170025
25.012548,-11.488624,5.3502846,17.0,13,-0.07516772
3.23219,-1.4852747,-0.1864207,25.0,6,-0.07516542
32.16451,-14.78722,8.172921,39.0,14,-0.07516311
3.6825316,-1.6937752,-0.07075206,31.0,7,-0.07516081
32.015774,-14.732381,9.443272,17.0,15,-0.07515851
1.9013083,-0.87772244,-0.56111974,41.0,0,-0.07513777
4.179108,-1.9301339,0.080350876,34.0,8,-0.07513546
2.0308378,-0.9383788,-0.5164876,49.0,1,-0.07513316
4.94746,-2.2870955,0.2856497,38.0,9,-0.07513086
2.22935,-1.0305766,-0.47740412,43.0,2,-0.075128555
5.916936,-2.7365148,0.57034713,20.0,10,-0.075126246
2.4489217,-1.1331171,-0.427379,40.0,3,-0.07512394
8.210965,-3.800957,1.110961,42.0,11,-0.07512164
2.7325644,-1.265517,-0.36975163,43.0,4,-0.07511934
12.026561,-5.5723414,2.099351,4.0,12,-0.07511704
2.9701664,-1.3761858,-0.28639376,47.0,5,-0.07511473
25.121916,-11.64522,5.3823404,17.0,13,-0.075112425
3.2831542,-1.5225966,-0.18966553,29.0,6,-0.07511012
32.186943,-14.933854,8.191817,29.0,14,-0.07510782
3.683852,-1.7099872,-0.07089168,32.0,7,-0.07510551
31.909838,-14.818825,9.427226,34.0,15,-0.07510321
1.8999838,-0.8851696,-0.56163734,44.0,0,-0.07508247
4.1578455,-1.9379517,0.08007164,40.0,8,-0.07508017
2.0257838,-0.94463855,-0.5160377,47.0,1,-0.07507786
4.9141073,-2.29253,0.28418428,40.0,9,-0.07507556
2.2328558,-1.0416722,-0.47893062,45.0,2,-0.07507326
6.0752525,-2.8355188,0.58655816,22.0,10,-0.075070955
2.4503212,-1.1441658,-0.4283176,45.0,3,-0.07506865
8.334335,-3.8934503,1.1294852,58.0,11,-0.07506634
2.731727,-1.2767285,-0.37023908,29.0,4,-0.07506404
12.066088,-5.6418996,2.1096754,6.0,12,-0.07506174
2.9851978,-1.3958282,-0.28831118,51.0,5,-0.075059436
25.411877,-11.88757,5.4533215,9.0,13,-0.07505713
3.335706,-1.5611391,-0.19301502,27.0,6,-0.075054824
40.690674,-19.052244,10.372943,5.0,14,-0.07505252
3.706834,-1.736408,-0.07145015,32.0,7,-0.07505022
31.887653,-14.944055,9.436025,17.0,15,-0.07504791
1.9021274,-0.8942623,-0.5631903,46.0,0,-0.075027175
4.156484,-1.955007,0.08017636,45.0,8,-0.07502487
2.0118945,-0.94672555,-0.51333827,47.0,1,-0.07502257
4.940408,-2.3258328,0.28617305,42.0,9,-0.07502027
2.2540739,-1.0611671,-0.48427325,50.0,2,-0.07501796
5.9157124,-2.7862453,0.57209027,17.0,10,-0.07501566
2.4516733,-1.1552382,-0.42925623,39.0,3,-0.075013354
8.318898,-3.9216723,1.1292415,56.0,11,-0.07501105
2.703913,-1.2752483,-0.3670705,39.0,4,-0.07500874
13.84889,-6.534516,2.4253602,25.0,12,-0.07500644
2.9478734,-1.3909363,-0.28517357,54.0,5,-0.07500414
3.252579,-1.5360982,-0.18851414,34.0,6,-0.074999526
40.578106,-19.172518,10.361245,20.0,14,-0.074997224
3.7188294,-1.7578826,-0.071799204,32.0,7,-0.07499492
1.9077209,-0.90503657,-0.56577843,47.0,0,-0.074971884
4.171313,-1.9797927,0.08059521,43.0,8,-0.074969575
2.0209,-0.9595939,-0.5164876,49.0,1,-0.07496727
4.9597306,-2.3550534,0.28774312,38.0,9,-0.07496497
2.2539022,-1.0707135,-0.4850365,52.0,2,-0.07496267
6.100296,-2.8992436,0.5909159,32.0,10,-0.07496036
2.4476256,-1.163789,-0.42925623,42.0,3,-0.074958056
8.32667,-3.9609196,1.1321664,56.0,11,-0.074955754
2.6922755,-1.2812667,-0.36609554,39.0,4,-0.07495345
13.869955,-6.6007776,2.4328692,25.0,12,-0.07495114
2.960989,-1.4097826,-0.2869167,50.0,5,-0.07494884
25.792646,-12.285888,5.5533056,9.0,13,-0.07494654
3.2526062,-1.5500201,-0.18882816,29.0,6,-0.074944235
41.123085,-19.605896,10.517811,15.0,14,-0.074941926
3.6534133,-1.741806,-0.070647344,30.0,7,-0.07493962
40.343082,-19.242664,11.976593,15.0,15,-0.07493732
1.8923529,-0.9058515,-0.562155,45.0,0,-0.07491659
4.1286507,-1.9763463,0.07989711,37.0,8,-0.074914284
2.0177066,-0.9662901,-0.5164876,49.0,1,-0.074911974
4.9172573,-2.3559546,0.28575432,33.0,9,-0.07490967
2.24307,-1.0751804,-0.48351002,49.0,2,-0.07490737
6.012889,-2.8834746,0.5834205,25.0,10,-0.07490507
2.4686892,-1.1838572,-0.43363637,42.0,3,-0.07490276
8.281273,-3.9730537,1.127779,63.0,11,-0.074900456
2.711277,-1.3013543,-0.36926416,33.0,4,-0.07489815
13.821898,-6.6371813,2.428489,25.0,12,-0.07489585
2.9542544,-1.4192472,-0.2867424,43.0,5,-0.07489354
27.309046,-13.119482,5.889129,20.0,13,-0.07489124
3.3230538,-1.5971354,-0.19322437,33.0,6,-0.07488894
41.068382,-19.747223,10.520511,21.0,14,-0.074886635
3.7085798,-1.7840216,-0.0718341,30.0,7,-0.07488433
40.20604,-19.34986,11.955888,15.0,15,-0.07488202
1.8858593,-0.91044205,-0.56111974,46.0,0,-0.07486129
4.1685443,-2.013358,0.08080464,45.0,8,-0.074858986
2.0143216,-0.9733273,-0.5164876,49.0,1,-0.07485668
4.941371,-2.388752,0.28763846,36.0,9,-0.074854374
2.2288868,-1.0774859,-0.4812203,47.0,2,-0.07485207
5.9566593,-2.880844,0.5788884,25.0,10,-0.07484977
2.4556508,-1.1881657,-0.43207204,45.0,3,-0.07484747
8.276288,-4.0062613,1.1289978,60.0,11,-0.07484516
2.6995711,-1.3073496,-0.36828917,38.0,4,-0.074842855
13.931975,-6.749985,2.4519541,29.0,12,-0.07484055
2.965669,-1.4368545,-0.28831118,41.0,5,-0.07483825
27.390284,-13.276384,5.9166055,20.0,13,-0.07483595
3.3318353,-1.6156969,-0.19406174,33.0,6,-0.07483364
41.739094,-20.249414,10.71037,5.0,14,-0.07483134
3.6861386,-1.7890977,-0.071519956,31.0,7,-0.074829035
41.531975,-20.166843,12.371034,16.0,15,-0.07482673
1.8809329,-0.9161734,-0.56060207,48.0,0,-0.07480599
4.1884556,-2.0410366,0.08132821,46.0,8,-0.07480369
2.0109117,-0.9803527,-0.5164876,63.0,1,-0.074801385
4.920437,-2.3998573,0.28690574,40.0,9,-0.07479908
2.2286408,-1.0869808,-0.48198354,46.0,2,-0.07479678
6.095186,-2.974138,0.59335625,32.0,10,-0.07479447
2.4426126,-1.1923974,-0.4305077,41.0,3,-0.07479217
8.208741,-4.008992,1.1216855,51.0,11,-0.07478987
2.73423,-1.3359368,-0.37365144,45.0,4,-0.074787565
13.81072,-6.750864,2.4347463,25.0,12,-0.074785255
2.9642153,-1.4489479,-0.2886598,43.0,5,-0.07478295
27.625957,-13.509909,5.9776645,20.0,13,-0.07478065
3.344116,-1.6360949,-0.19510846,29.0,6,-0.07477835
3.6475446,-1.7861243,-0.07089168,32.0,7,-0.07477374
41.180283,-20.17401,12.287176,16.0,15,-0.074771434
1.8933275,-0.93040156,-0.56526077,50.0,0,-0.0747507
4.1328526,-2.0318239,0.08038579,46.0,8,-0.0747484
2.009226,-0.9882262,-0.5169375,47.0,1,-0.07474609
4.8869414,-2.404673,0.28544036,40.0,9,-0.074743785
2.214264,-1.0895529,-0.47969386,48.0,2,-0.07474148
6.1455445,-3.025315,0.59928286,30.0,10,-0.07473918
2.41717,-1.1904434,-0.42675328,39.0,3,-0.07473687
8.305099,-4.092018,1.1367973,42.0,11,-0.07473457
2.7277696,-1.3445953,-0.3734077,41.0,4,-0.07473227
13.670142,-6.741368,2.414097,14.0,12,-0.074729964
2.9341226,-1.4469491,-0.28621945,36.0,5,-0.074727654
27.66314,-13.647954,5.995982,20.0,13,-0.07472535
3.225553,-1.5920665,-0.18851414,28.0,6,-0.07472305
54.785492,-27.052881,14.106231,11.0,14,-0.07472075
3.7040372,-1.8298447,-0.07211334,26.0,7,-0.07471844
41.137318,-20.331327,12.295458,16.0,15,-0.074716136
1.9039149,-0.9438693,-0.5694019,51.0,0,-0.0746954
4.1705213,-2.0684505,0.0812584,45.0,8,-0.0746931
2.011001,-0.99783224,-0.51828724,56.0,1,-0.0746908
4.8606277,-2.4128366,0.28439364,36.0,9,-0.07468849
2.1981375,-1.091165,-0.4770225,38.0,2,-0.074686185
6.1991863,-3.0786517,0.6055581,30.0,10,-0.07468388
2.4306908,-1.207663,-0.42988196,40.0,3,-0.07468158
8.296098,-4.1236343,1.1375285,42.0,11,-0.07467927
2.7070625,-1.3461539,-0.37121406,49.0,4,-0.07467697
13.579319,-6.755609,2.4022079,12.0,12,-0.074674666
2.968298,-1.4767058,-0.2900543,39.0,5,-0.07467236
27.664545,-13.768927,6.0066676,10.0,13,-0.074670054
3.2718244,-1.6291329,-0.19154961,33.0,6,-0.07466775
41.48464,-20.665401,10.700022,11.0,14,-0.07466545
3.668992,-1.8284923,-0.07155487,26.0,7,-0.07466315
41.14217,-20.512728,12.318234,16.0,15,-0.07466084
1.8885138,-0.9444608,-0.56577843,48.0,0,-0.0746401
4.1686406,-2.08568,0.08136312,42.0,8,-0.0746378
2.021447,-1.011824,-0.52188647,56.0,1,-0.0746355
4.866462,-2.4369426,0.285231,35.0,9,-0.074633196
2.21187,-1.1076219,-0.48083872,44.0,2,-0.07463089
6.232936,-3.1225822,0.60991585,35.0,10,-0.074628584
2.4335241,-1.2196808,-0.43113342,40.0,3,-0.07462628
8.421839,-4.22286,1.1567839,40.0,11,-0.07462398
2.6934752,-1.3511446,-0.3699954,45.0,4,-0.07462167
13.538,-6.794108,2.399079,17.0,12,-0.07461937
2.9524412,-1.4816962,-0.28900844,41.0,5,-0.074617065
28.777813,-14.448567,6.2592983,11.0,13,-0.07461476
3.2661176,-1.6405438,-0.19154961,31.0,6,-0.07461245
41.24683,-20.72696,10.657281,16.0,14,-0.07461015
3.5982683,-1.8089535,-0.0702983,43.0,7,-0.07460785
41.173866,-20.708296,12.349292,16.0,15,-0.07460555
1.8869305,-0.9519173,-0.5662961,45.0,0,-0.07458481
4.1470532,-2.0930107,0.08108389,46.0,8,-0.0745825
2.019642,-1.0197523,-0.5223363,48.0,1,-0.0745802
4.9024944,-2.476428,0.2878478,33.0,9,-0.0745779
2.2185042,-1.1206471,-0.4831284,41.0,2,-0.074575596
6.243337,-3.1551044,0.6120076,42.0,10,-0.074573286
2.4257262,-1.2263854,-0.4305077,42.0,3,-0.07457098
8.506246,-4.302406,1.1704333,51.0,11,-0.07456868
2.6692586,-1.3506794,-0.36731425,48.0,4,-0.07456638
13.463092,-6.815449,2.390006,6.0,12,-0.07456407
2.9259198,-1.4811945,-0.2869167,39.0,5,-0.07456177
29.196592,-14.786655,6.361572,11.0,13,-0.074559465
3.2977853,-1.6708914,-0.19374773,28.0,6,-0.07455716
41.10123,-20.833807,10.638386,21.0,14,-0.07455486
3.6418693,-1.8468264,-0.07127563,42.0,7,-0.07455255
41.628517,-21.119352,12.50769,17.0,15,-0.07455025
1.8801525,-0.95674586,-0.56526077,45.0,0,-0.07452951
4.152197,-2.1138244,0.08132821,39.0,8,-0.07452721
2.0299623,-1.0338712,-0.52593553,51.0,1,-0.0745249
4.8444223,-2.4672916,0.28491697,33.0,9,-0.0745226
2.221576,-1.1319495,-0.4846549,41.0,2,-0.0745203
6.241161,-3.1814024,0.6128792,31.0,10,-0.074517995
2.4249501,-1.23664,-0.43113342,41.0,3,-0.074515685
8.519468,-4.346506,1.1743331,61.0,11,-0.07451338
2.6824477,-1.3685449,-0.36975163,43.0,4,-0.07451108
13.776471,-7.031581,2.449764,4.0,12,-0.07450878
2.9562206,-1.5095206,-0.29040295,40.0,5,-0.07450648
29.70077,-15.172495,6.482927,11.0,13,-0.07450417
3.2901542,-1.6814837,-0.19364306,29.0,6,-0.074501865
41.366814,-21.141144,10.725216,16.0,14,-0.07449956
3.6107984,-1.8461486,-0.07078696,46.0,7,-0.07449726
1.8855637,-0.9673846,-0.567849,43.0,0,-0.074474216
4.1487217,-2.1294081,0.08139802,45.0,8,-0.07447191
2.0230556,-1.0388168,-0.52503574,51.0,1,-0.07446961
4.8770785,-2.5043263,0.28732443,35.0,9,-0.07446731
2.2370195,-1.1491783,-0.48885265,45.0,2,-0.074465
6.2589297,-3.2166529,0.6156681,34.0,10,-0.0744627
2.4348898,-1.2519006,-0.43363637,37.0,3,-0.074460395
8.515599,-4.380182,1.1757956,59.0,11,-0.07445809
2.6531808,-1.3647207,-0.36633927,43.0,4,-0.07445578
13.645933,-7.022092,2.430679,8.0,12,-0.07445348
2.9759984,-1.5320828,-0.29284328,35.0,5,-0.07445118
3.3005393,-1.7006184,-0.1945851,34.0,6,-0.07444657
41.367508,-21.314802,10.743662,16.0,14,-0.074444264
3.6064334,-1.8590283,-0.07082187,41.0,7,-0.07444196
1.8823454,-0.97363204,-0.567849,42.0,0,-0.074418925
4.18071,-2.1633725,0.08216593,37.0,8,-0.074416615
2.0247915,-1.0482075,-0.5263855,54.0,1,-0.07441431
4.808442,-2.4892664,0.28376558,35.0,9,-0.07441201
2.2297099,-1.1547844,-0.48808944,47.0,2,-0.07440971
6.2411523,-3.2337239,0.6149709,31.0,10,-0.0744074
2.4517705,-1.270877,-0.43739083,44.0,3,-0.0744051
8.493978,-4.404741,1.1748205,53.0,11,-0.074402794
2.6415918,-1.3698561,-0.3653643,45.0,4,-0.07440049
13.706738,-7.1109695,2.4456968,19.0,12,-0.07439818
2.946144,-1.5290937,-0.29040295,38.0,5,-0.07439588
3.301971,-1.7152365,-0.1950038,28.0,6,-0.074391276
41.360584,-21.485104,10.760309,11.0,14,-0.074388966
3.61267,-1.8774323,-0.07106619,42.0,7,-0.074386664
41.543198,-21.59838,12.545995,17.0,15,-0.07438436
1.8739676,-0.9771891,-0.5662961,45.0,0,-0.07436363
4.1646485,-2.1726,0.08199141,34.0,8,-0.074361324
2.0420356,-1.0657358,-0.5317843,65.0,1,-0.074359015
4.8178673,-2.5144389,0.2848123,35.0,9,-0.07435671
2.2223876,-1.160355,-0.4873262,47.0,2,-0.07435441
6.2445226,-3.2617824,0.61636543,31.0,10,-0.07435211
2.479056,-1.2954682,-0.44302243,49.0,3,-0.0743498
8.507472,-4.447599,1.1787205,48.0,11,-0.074347496
2.6599042,-1.3905643,-0.36853293,51.0,4,-0.074345194
13.455526,-7.0373693,2.4050238,2.0,12,-0.07434289
2.9516492,-1.544397,-0.2914488,39.0,5,-0.07434058
32.71053,-17.122465,7.1767087,13.0,13,-0.07433828
3.2555702,-1.704866,-0.19259633,31.0,6,-0.07433598
41.38233,-21.670958,10.784603,22.0,14,-0.074333675
3.6259086,-1.89961,-0.07145015,32.0,7,-0.07433137
41.39263,-21.694769,12.522184,17.0,15,-0.07432906
1.8584056,-0.9777545,-0.5626726,44.0,0,-0.074299335
4.2221303,-2.2223113,0.08328289,42.0,8,-0.07429703
2.0346673,-1.0713972,-0.5308845,56.0,1,-0.07429473
4.8523536,-2.5561912,0.2874291,33.0,9,-0.07429242
2.2215936,-1.1703224,-0.48808944,45.0,2,-0.07429012
6.2395763,-3.2883635,0.6170626,31.0,10,-0.07428782
2.474291,-1.3045456,-0.44302243,37.0,3,-0.074285515
8.506916,-4.487086,1.180914,40.0,11,-0.074283205
2.6685905,-1.4081788,-0.37048283,46.0,4,-0.0742809
14.843393,-7.8359685,2.6584477,33.0,12,-0.0742786
2.9336352,-1.548694,-0.2902286,30.0,5,-0.0742763
3.2387042,-1.7111886,-0.1919683,33.0,6,-0.07427169
41.210953,-21.783253,10.761659,22.0,14,-0.074269384
3.646872,-1.9284753,-0.07200863,31.0,7,-0.07426708
42.10136,-22.272709,12.762367,18.0,15,-0.07426477
1.877166,-0.9960065,-0.5694019,37.0,0,-0.07424404
4.193152,-2.2257848,0.082864024,39.0,8,-0.074241735
2.0326362,-1.079407,-0.5313344,52.0,1,-0.07423943
4.878677,-2.5918546,0.28952253,33.0,9,-0.07423713
2.2278976,-1.1835968,-0.49037915,45.0,2,-0.07423482
6.2491713,-3.3213444,0.6191544,31.0,10,-0.07423252
2.4348392,-1.2946271,-0.43676507,36.0,3,-0.07423022
8.492953,-4.517685,1.1811578,44.0,11,-0.074227914
2.6584017,-1.4146878,-0.36975163,44.0,4,-0.074225605
14.988574,-7.979635,2.6894217,27.0,12,-0.0742233
2.9563506,-1.5739055,-0.2930176,33.0,5,-0.074221
32.81243,-17.476074,7.226319,13.0,13,-0.0742187
3.2732527,-1.744085,-0.19437577,32.0,6,-0.07421639
41.162174,-21.941639,10.768857,27.0,14,-0.074214086
3.6789367,-1.9618944,-0.07277653,31.0,7,-0.07421178
41.94836,-22.379526,12.739592,18.0,15,-0.07420948
1.8753814,-1.0034646,-0.5699196,42.0,0,-0.07418875
4.157149,-2.2253082,0.08230555,39.0,8,-0.07418644
2.0168302,-1.0800557,-0.52818507,56.0,1,-0.074184135
4.8590374,-2.6032095,0.2888945,38.0,9,-0.07418183
2.2306745,-1.1950749,-0.4919056,44.0,2,-0.07417953
6.279685,-3.3657267,0.62333786,31.0,10,-0.07417722
2.4355283,-1.3059187,-0.43770367,29.0,3,-0.07417492
8.447394,-4.531351,1.1770141,48.0,11,-0.074172616
2.6621928,-1.4286519,-0.3709703,51.0,4,-0.074170314
14.995436,-8.050594,2.695679,27.0,12,-0.074168004
2.9209962,-1.5681942,-0.2900543,41.0,5,-0.0741657
33.339283,-17.906345,7.3560686,13.0,13,-0.0741634
3.2671447,-1.7555002,-0.19437577,24.0,6,-0.0741611
41.1128,-22.099953,10.776055,22.0,14,-0.074158795
3.738991,-2.0107145,-0.07410292,30.0,7,-0.074156485
41.83596,-22.50751,12.7292385,17.0,15,-0.07415418
1.8803678,-1.0145913,-0.57250774,51.0,0,-0.07413345
4.2074256,-2.2711518,0.0834574,45.0,8,-0.074131146
2.0147626,-1.0880152,-0.52863497,51.0,1,-0.07412884
4.878036,-2.635344,0.29056925,33.0,9,-0.074126534
2.2143984,-1.196322,-0.4892343,39.0,2,-0.07412423
6.29419,-3.401836,0.62595254,36.0,10,-0.07412193
2.4240043,-1.3106542,-0.4364522,33.0,3,-0.07411962
8.48216,-4.5881996,1.1840826,48.0,11,-0.07411732
2.6519523,-1.4351019,-0.37023908,50.0,4,-0.074115016
15.107951,-8.179065,2.7210214,38.0,12,-0.07411271
2.8559332,-1.5461304,-0.2841277,39.0,5,-0.07411041
33.67018,-18.235788,7.443078,14.0,13,-0.0741081
3.3013864,-1.7887778,-0.19678321,37.0,6,-0.0741058
41.160473,-22.311121,10.808898,11.0,14,-0.0741035
3.7178864,-2.0161278,-0.073823676,32.0,7,-0.074101195
41.92015,-22.741842,12.778932,18.0,15,-0.074098885
1.8785118,-1.0220722,-0.57302535,49.0,0,-0.07407815
4.183665,-2.2772205,0.08314327,43.0,8,-0.07407585
2.016087,-1.0978373,-0.5299847,49.0,1,-0.074073546
4.9512405,-2.6972623,0.29548883,35.0,9,-0.074071236
2.1998649,-1.1984092,-0.48694456,44.0,2,-0.074068934
6.264782,-3.4142518,0.6242094,34.0,10,-0.07406663
2.4402266,-1.3304546,-0.44020665,31.0,3,-0.07406433
8.415553,-4.5902143,1.1770141,53.0,11,-0.07406203
2.6469266,-1.44435,-0.37023908,50.0,4,-0.07405972
15.082778,-8.233645,2.721647,33.0,12,-0.074057415
2.937958,-1.6038228,-0.29284328,36.0,5,-0.07405511
33.83376,-18.477417,7.4934516,14.0,13,-0.07405281
3.3301766,-1.819443,-0.19887665,24.0,6,-0.0740505
41.27044,-22.55747,10.858387,16.0,14,-0.0740482
3.7669713,-2.0597937,-0.07494063,31.0,7,-0.0740459
41.71849,-22.821283,12.741662,18.0,15,-0.074043594
1.866464,-1.0239773,-0.5704372,45.0,0,-0.07402285
4.240552,-2.3274095,0.08443475,40.0,8,-0.07402055
2.027616,-1.1133093,-0.5340338,51.0,1,-0.07401825
4.933042,-2.7097208,0.29496548,36.0,9,-0.074015945
2.211155,-1.2145878,-0.49037915,45.0,2,-0.07401364
6.249334,-3.43418,0.6238608,34.0,10,-0.07401133
2.4407609,-1.3418195,-0.44114524,40.0,3,-0.07400903
8.404697,-4.622432,1.1777455,46.0,11,-0.07400673
2.645347,-1.4554946,-0.37072656,49.0,4,-0.07400443
15.03664,-8.276718,2.7185183,40.0,12,-0.07400212
2.9742324,-1.6371266,-0.29702678,35.0,5,-0.073999815
33.94103,-18.690107,7.531613,14.0,13,-0.07399751
3.3203068,-1.829129,-0.19866732,33.0,6,-0.07399521
43.637165,-24.049273,11.503097,25.0,14,-0.0739929
3.7842746,-2.086447,-0.0754293,32.0,7,-0.0739906
41.59459,-22.942507,12.728203,17.0,15,-0.073988296
1.8780924,-1.038902,-0.57509595,44.0,0,-0.07396756
4.1711645,-2.3083086,0.083213076,42.0,8,-0.07396526
2.0271275,-1.1222678,-0.53493357,51.0,1,-0.07396295
4.939278,-2.7356334,0.29590753,35.0,9,-0.07396065
2.212054,-1.2251524,-0.491524,41.0,2,-0.073958345
6.2425365,-3.4588704,0.62438375,31.0,10,-0.07395604
2.4308789,-1.3474581,-0.44020665,29.0,3,-0.07395373
8.390247,-4.6527042,1.1779891,36.0,11,-0.07395143
2.6402504,-1.4647197,-0.37072656,49.0,4,-0.07394913
15.121652,-8.392421,2.7391677,38.0,12,-0.073946826
2.958047,-1.6416974,-0.2959809,34.0,5,-0.07394452
36.13098,-20.060719,8.033059,17.0,13,-0.073942214
3.2842193,-1.824221,-0.19688788,23.0,6,-0.07393991
42.10164,-23.394989,11.119781,5.0,14,-0.07393761
3.8014379,-2.1132467,-0.075917974,31.0,7,-0.0739353
41.794518,-23.243423,12.814132,18.0,15,-0.073933
1.869393,-1.0426286,-0.573543,45.0,0,-0.07391226
4.128156,-2.3033679,0.08251498,39.0,8,-0.07390996
2.030004,-1.1331364,-0.5367332,52.0,1,-0.07390766
5.004682,-2.79473,0.30040842,39.0,9,-0.07390535
2.2043355,-1.2309518,-0.49076074,39.0,2,-0.07390305
6.3730536,-3.5603197,0.6386773,31.0,10,-0.073900744
2.4192634,-1.3520805,-0.4389552,34.0,3,-0.07389844
8.443261,-4.7207136,1.1877387,34.0,11,-0.07389613
2.6281917,-1.4700508,-0.36975163,50.0,4,-0.07389383
15.116399,-8.458659,2.743548,26.0,12,-0.07389153
2.9557757,-1.6539588,-0.29632953,35.0,5,-0.073889226
36.108704,-20.213566,8.043744,17.0,13,-0.073886916
3.3126838,-1.8551922,-0.19898133,32.0,6,-0.073884614
42.37334,-23.739927,11.213361,5.0,14,-0.07388231
3.8149703,-2.1382356,-0.07633682,32.0,7,-0.07388001
41.46037,-23.247448,12.7364855,18.0,15,-0.07387771
1.8893166,-1.062404,-0.58079,58.0,0,-0.073856965
4.1898046,-2.356981,0.083911166,39.0,8,-0.07385466
2.0226398,-1.138304,-0.5358334,48.0,1,-0.07385236
4.988425,-2.8073926,0.29998973,41.0,9,-0.07385006
2.2068684,-1.2424917,-0.49228725,46.0,2,-0.07384775
6.454329,-3.6353433,0.64809006,31.0,10,-0.073845446
2.395598,-1.34985,-0.43551362,39.0,3,-0.073843144
8.630785,-4.8651824,1.2164999,29.0,11,-0.07384084
2.6299605,-1.4831164,-0.37072656,48.0,4,-0.07383853
15.396258,-8.682428,2.7995515,19.0,12,-0.07383623
2.9361022,-1.6564344,-0.29493502,41.0,5,-0.07383393
36.414066,-20.551777,8.1277,18.0,13,-0.073831625
3.2940133,-1.8598703,-0.19824862,27.0,6,-0.07382932
46.559277,-26.299078,12.345313,7.0,14,-0.07382701
3.8148234,-2.1548088,-0.07647645,31.0,7,-0.07382471
1.8939995,-1.0737563,-0.5833782,54.0,0,-0.073801674
4.197622,-2.3797383,0.08422531,39.0,8,-0.073799364
2.018854,-1.1450051,-0.5358334,47.0,1,-0.07379706
4.9699087,-2.81986,0.29946637,43.0,9,-0.07379476
2.204225,-1.2511566,-0.49266884,46.0,2,-0.07379246
6.4034834,-3.636207,0.6442552,31.0,10,-0.07379015
2.4426408,-1.3870494,-0.44489968,46.0,3,-0.073787846
8.650851,-4.914367,1.2216184,48.0,11,-0.07378554
2.6215763,-1.4898677,-0.37023908,50.0,4,-0.07378324
15.281714,-8.688279,2.784221,23.0,12,-0.07378094
2.9389613,-1.6715984,-0.2958066,47.0,5,-0.07377863
36.328648,-20.66271,8.123884,18.0,13,-0.07377633
3.3694158,-1.9172071,-0.2031682,32.0,6,-0.073774025
46.64794,-26.553589,12.392103,8.0,14,-0.07377172
3.8090162,-2.1691017,-0.07651135,27.0,7,-0.07376941
42.12703,-23.999607,12.991164,19.0,15,-0.07376711
1.880364,-1.0742811,-0.5802723,55.0,0,-0.073746376
4.1875534,-2.3933837,0.08419041,39.0,8,-0.07374407
2.0317621,-1.1617182,-0.54033244,51.0,1,-0.073741764
5.022447,-2.8728914,0.30323455,30.0,9,-0.07373946
2.2136972,-1.2662575,-0.4957218,48.0,2,-0.07373716
6.4346223,-3.6821609,0.64861304,34.0,10,-0.07373486
2.4412131,-1.3975302,-0.4455254,37.0,3,-0.073732555
8.656038,-4.9573593,1.224787,44.0,11,-0.073730245
2.6249716,-1.5039438,-0.3714578,45.0,4,-0.07372794
15.25472,-8.743533,2.7848465,23.0,12,-0.07372564
2.9264877,-1.6773721,-0.29510933,46.0,5,-0.07372334
36.71274,-21.05112,8.226158,19.0,13,-0.07372103
3.3124619,-1.9001371,-0.20013271,31.0,6,-0.07371873
3.79275,-2.177406,-0.07633682,31.0,7,-0.07371412
41.959232,-24.098402,12.9652815,18.0,15,-0.07371181
1.896691,-1.0924083,-0.58648396,55.0,0,-0.07369108
4.225955,-2.4349418,0.08513284,39.0,8,-0.073688775
2.020941,-1.1649104,-0.5385328,48.0,1,-0.07368647
5.0020075,-2.8844192,0.30260652,37.0,9,-0.07368417
2.2177675,-1.2788807,-0.49762988,51.0,2,-0.07368186
6.416553,-3.7016125,0.64809006,34.0,10,-0.07367956
2.4226327,-1.398144,-0.44302243,44.0,3,-0.07367726
8.707446,-5.0272465,1.2345365,48.0,11,-0.073674954
2.6111112,-1.5081334,-0.37023908,49.0,4,-0.073672645
15.306205,-8.844167,2.7998643,23.0,12,-0.07367034
2.927515,-1.6915644,-0.2958066,46.0,5,-0.07366804
36.812405,-21.27936,8.265083,19.0,13,-0.07366574
3.326557,-1.9236861,-0.20138879,37.0,6,-0.07366343
42.544662,-24.6127,11.347431,6.0,14,-0.073661126
3.802434,-2.2006488,-0.07668587,30.0,7,-0.073658824
41.861485,-24.23698,12.961141,18.0,15,-0.07365652
1.8978782,-1.1019324,-0.5880369,51.0,0,-0.07363579
4.262388,-2.475792,0.08604036,39.0,8,-0.07363348
2.000013,-1.1621671,-0.5340338,48.0,1,-0.073631175
4.9211135,-2.860708,0.298315,39.0,9,-0.07362887
2.208198,-1.2836546,-0.49648505,46.0,2,-0.07362657
6.4087596,-3.7269924,0.64861304,42.0,10,-0.07362426
2.4143229,-1.4046053,-0.4423967,42.0,3,-0.07362196
8.693276,-5.0596075,1.2350241,48.0,11,-0.073619656
2.605831,-1.5172387,-0.37023908,48.0,4,-0.073617354
15.329863,-8.929358,2.8098764,23.0,12,-0.073615044
2.9405308,-1.7128041,-0.297724,38.0,5,-0.07361274
37.080547,-21.607397,8.34217,20.0,13,-0.07361044
3.3163705,-1.9332745,-0.20117943,28.0,6,-0.07360814
49.357025,-28.784166,13.19113,9.0,14,-0.07360583
3.7981834,-2.2159235,-0.07675569,30.0,7,-0.073603526
41.766617,-24.377111,12.9580345,18.0,15,-0.07360122
1.8890184,-1.1056231,-0.58648396,45.0,0,-0.07358049
4.2399154,-2.482572,0.08576112,39.0,8,-0.07357819
2.0161223,-1.1809607,-0.5394326,51.0,1,-0.07357588
4.9955344,-2.927348,0.3034439,37.0,9,-0.073573574
2.20201,-1.2903622,-0.4961034,51.0,2,-0.07357127
6.4850893,-3.8017368,0.65767723,38.0,10,-0.07356897
2.4503002,-1.4370075,-0.44990557,50.0,3,-0.07356666
8.663577,-5.0828905,1.2333179,51.0,11,-0.07356436
2.5885348,-1.5192916,-0.36853293,45.0,4,-0.073562056
15.768748,-9.258869,2.8962278,23.0,12,-0.07355975
2.924225,-1.7170049,-0.29667813,45.0,5,-0.073557444
37.404404,-21.971367,8.432232,20.0,13,-0.07355514
3.3233776,-1.952934,-0.20201682,29.0,6,-0.07355284
43.791355,-25.74363,11.727598,13.0,14,-0.07355054
3.8524787,-2.2656622,-0.07801226,32.0,7,-0.073548235
41.61134,-24.481615,12.936294,18.0,15,-0.073545925
1.8801559,-1.1092651,-0.584931,52.0,0,-0.07352519
4.257055,-2.5126035,0.0862847,40.0,8,-0.07352289
1.9968853,-1.1790737,-0.5353835,45.0,1,-0.073520586
5.016239,-2.9630518,0.30532798,31.0,9,-0.073518276
2.1941116,-1.2960439,-0.4953402,50.0,2,-0.073515974
6.490647,-3.8355002,0.65959466,35.0,10,-0.07351367
2.438467,-1.4415311,-0.4486541,46.0,3,-0.07351137
8.703876,-5.147457,1.241605,53.0,11,-0.07350906
2.576382,-1.524275,-0.36755794,45.0,4,-0.07350676
15.882528,-9.400384,2.9231348,27.0,12,-0.073504455
2.9213414,-1.7297417,-0.29702678,43.0,5,-0.07350215
37.56061,-22.239838,8.484895,21.0,13,-0.07349985
3.3096666,-1.9604514,-0.20159812,33.0,6,-0.07349754
43.751526,-25.926138,11.741096,13.0,14,-0.07349524
3.8583076,-2.2872536,-0.07829149,33.0,7,-0.07349294
42.79511,-25.37958,13.33177,21.0,15,-0.073490635
1.8810583,-1.1191123,-0.58648396,54.0,0,-0.07346989
4.306689,-2.5622108,0.08747146,45.0,8,-0.07346759
2.0295982,-1.2079637,-0.54528135,59.0,1,-0.07346529
5.002434,-2.9785001,0.30511865,37.0,9,-0.073462985
2.1876597,-1.303072,-0.49495855,47.0,2,-0.07346068
6.5296044,-3.8908808,0.66499835,38.0,10,-0.07345837
2.4501352,-1.4605737,-0.4517828,54.0,3,-0.07345607
8.747238,-5.214401,1.2503796,42.0,11,-0.07345377
2.6102588,-1.5566441,-0.37316394,33.0,4,-0.07345147
15.773279,-9.410225,2.9090557,19.0,12,-0.07344916
2.9392374,-1.7542236,-0.29946712,39.0,5,-0.073446855
3.2424455,-1.9367223,-0.1979346,34.0,6,-0.07344225
43.497288,-25.991362,11.698355,6.0,14,-0.07343994
3.843434,-2.2966049,-0.078151874,36.0,7,-0.07343764
1.8837678,-1.1296457,-0.58855456,54.0,0,-0.0734146
4.317847,-2.5903232,0.08789032,40.0,8,-0.0734123
2.0184734,-1.2113832,-0.54348177,54.0,1,-0.07340999
5.0108438,-3.007249,0.30627003,41.0,9,-0.07340769
2.193197,-1.316764,-0.4972483,49.0,2,-0.073405385
6.5313544,-3.9228823,0.6665671,35.0,10,-0.07340308
2.4314759,-1.4609782,-0.44927984,54.0,3,-0.07340077
8.78081,-5.2781296,1.2579355,46.0,11,-0.07339847
2.630054,-1.5815456,-0.37682006,33.0,4,-0.07339617
15.699706,-9.440795,2.9015467,14.0,12,-0.07339387
2.9467542,-1.7726892,-0.30086163,36.0,5,-0.07339156
3.1911771,-1.9212447,-0.19521314,25.0,6,-0.07338695
41.883854,-25.226091,11.288044,6.0,14,-0.07338465
3.818264,-2.2996898,-0.07780283,31.0,7,-0.07338234
42.074142,-25.350708,13.161984,20.0,15,-0.07338004
1.8880795,-1.1412108,-0.5911427,51.0,0,-0.0733593
4.35544,-2.632556,0.08883275,40.0,8,-0.073357
2.016113,-1.2190784,-0.54393166,61.0,1,-0.0733547
4.928541,-2.9813046,0.3018738,35.0,9,-0.07335239
2.1919465,-1.3264445,-0.4980115,46.0,2,-0.07335009
6.5789795,-3.9828024,0.6728423,35.0,10,-0.073347785
2.4283078,-1.470056,-0.4495927,50.0,3,-0.07334548
8.761562,-5.3061905,1.2576917,51.0,11,-0.07334317
2.5942347,-1.5717432,-0.37243277,29.0,4,-0.07334087
15.737605,-9.538543,2.9146872,14.0,12,-0.07333857
2.9661038,-1.7984594,-0.30347627,44.0,5,-0.073336266
3.2838328,-1.9918946,-0.20128411,28.0,6,-0.073331654
41.751656,-25.335526,11.274997,12.0,14,-0.07332935
3.8341444,-2.3275316,-0.07829149,32.0,7,-0.07332705
42.196747,-25.625772,13.228242,20.0,15,-0.07332474
1.8958348,-1.1544992,-0.5947662,54.0,0,-0.073304005
4.3684254,-2.6612682,0.08928651,47.0,8,-0.0733017
2.008517,-1.2240801,-0.5430318,61.0,1,-0.0732994
5.027244,-3.0650313,0.30857283,39.0,9,-0.0732971
2.1841834,-1.3316619,-0.4972483,43.0,2,-0.07329479
6.521511,-3.9776232,0.6683102,33.0,10,-0.07329249
2.4282203,-1.4816102,-0.4505313,53.0,3,-0.073290184
8.77518,-5.356393,1.2623228,44.0,11,-0.07328788
2.5616252,-1.5642366,-0.36853293,36.0,4,-0.07328557
15.609814,-9.535751,2.8971665,16.0,12,-0.07328327
2.9669244,-1.8124403,-0.30417353,46.0,5,-0.07328097
3.2700436,-1.9991779,-0.20086543,28.0,6,-0.073276356
41.591476,-25.43739,11.255651,24.0,14,-0.07327405
3.815762,-2.334639,-0.07808206,32.0,7,-0.07327175
1.8819144,-1.1550466,-0.5916603,47.0,0,-0.073248714
4.4238653,-2.7162611,0.090612896,50.0,8,-0.073246405
2.0125346,-1.2361834,-0.54528135,63.0,1,-0.0732441
5.019918,-3.084652,0.30878216,39.0,9,-0.0732418
2.1711583,-1.3341389,-0.4953402,42.0,2,-0.0732395
6.4923105,-3.990973,0.66674143,27.0,10,-0.07323719
2.4331298,-1.4962862,-0.45240852,54.0,3,-0.073234886
8.815605,-5.4233966,1.2708536,51.0,11,-0.07323258
2.5798175,-1.5877349,-0.37194526,41.0,4,-0.07323028
15.638673,-9.628502,2.908743,9.0,12,-0.07322797
2.977546,-1.8332314,-0.30591667,50.0,5,-0.07322567
42.027817,-25.886028,9.594641,29.0,13,-0.07322337
3.3021543,-2.0346782,-0.20327288,29.0,6,-0.073221065
41.517357,-25.591621,11.2597,18.0,14,-0.07321876
3.8075893,-2.3479445,-0.07808206,31.0,7,-0.07321645
41.64195,-25.68848,13.110221,19.0,15,-0.07321415
1.8860856,-1.1666899,-0.59424853,50.0,0,-0.073193416
4.4075546,-2.7274776,0.09047327,52.0,8,-0.073191114
2.0048933,-1.2411497,-0.54438156,56.0,1,-0.073188804
5.1110005,-3.165251,0.3150625,39.0,9,-0.0731865
2.1748333,-1.3468778,-0.4972483,48.0,2,-0.0731842
6.549475,-4.057682,0.6740625,27.0,10,-0.0731819
2.4094224,-1.493323,-0.44896698,49.0,3,-0.07317959
8.801682,-5.457274,1.2715849,46.0,11,-0.073177285
2.6029375,-1.6145188,-0.37608883,40.0,4,-0.07317498
16.590244,-10.294407,3.092397,17.0,12,-0.07317268
2.954199,-1.833109,-0.30417353,49.0,5,-0.07317038
41.917183,-26.02015,9.59006,29.0,13,-0.07316807
3.3221793,-2.0630505,-0.20494762,37.0,6,-0.07316577
41.581722,-25.832024,11.30154,18.0,14,-0.073163465
3.7891803,-2.3548882,-0.07787264,30.0,7,-0.07316116
1.870526,-1.1661125,-0.59062505,49.0,0,-0.07313812
4.3250465,-2.6973436,0.08897237,42.0,8,-0.073135816
2.0088155,-1.253298,-0.54663104,51.0,1,-0.07313351
5.1100864,-3.1894171,0.31569052,41.0,9,-0.07313121
2.1867735,-1.3648562,-0.5010645,48.0,2,-0.0731289
6.604561,-4.123783,0.68120927,33.0,10,-0.0731266
2.404195,-1.5017245,-0.44896698,52.0,3,-0.0731243
8.743859,-5.4637694,1.2659788,40.0,11,-0.073121995
2.652834,-1.6583185,-0.3841322,41.0,4,-0.073119685
16.58938,-10.374249,3.098967,22.0,12,-0.07311738
2.9393358,-1.8381279,-0.303302,49.0,5,-0.07311508
3.2912552,-2.0598009,-0.20348223,37.0,6,-0.07311047
42.470768,-26.590244,11.568333,19.0,14,-0.07310817
3.7775474,-2.3659773,-0.07780283,30.0,7,-0.073105864
31.007387,-19.42828,9.804583,9.0,15,-0.07310356
1.8828021,-1.182912,-0.5958015,54.0,0,-0.07308283
4.2512684,-2.671988,0.087645985,33.0,8,-0.07308052
1.9895808,-1.2509669,-0.542582,46.0,1,-0.073078215
5.22741,-3.2880542,0.3236456,48.0,9,-0.07307591
2.1853197,-1.3745718,-0.50182766,47.0,2,-0.07307361
6.605304,-4.156362,0.6827781,35.0,10,-0.0730713
2.3989384,-1.5101074,-0.44896698,52.0,3,-0.073069
8.904469,-5.607444,1.2920588,38.0,11,-0.0730667
2.6335924,-1.6591036,-0.3821823,36.0,4,-0.073064394
16.549723,-10.429986,3.0983415,25.0,12,-0.073062085
2.939644,-1.852626,-0.30399922,53.0,5,-0.07305978
3.3262782,-2.0979135,-0.20609902,39.0,6,-0.07305518
42.558987,-26.85272,11.617823,26.0,14,-0.07305287
3.7827935,-2.387688,-0.07808206,30.0,7,-0.073050566
42.64149,-26.925592,13.512943,22.0,15,-0.073048264
1.8868226,-1.1946442,-0.5983896,51.0,0,-0.07302753
4.311178,-2.7306824,0.08907708,45.0,8,-0.07302523
2.0082474,-1.2725068,-0.5488806,44.0,1,-0.07302292
5.2108397,-3.3030734,0.32333156,43.0,9,-0.073020615
2.1871407,-1.3863957,-0.50335413,44.0,2,-0.07301831
6.6075807,-4.190064,0.6845212,44.0,10,-0.07301601
2.410333,-1.5290537,-0.45209566,50.0,3,-0.0730137
8.852996,-5.6182814,1.2874278,36.0,11,-0.0730114
2.6177297,-1.6619027,-0.38071984,41.0,4,-0.073009096
16.781681,-10.658198,3.148713,21.0,12,-0.073006794
2.9146588,-1.8511262,-0.3020818,49.0,5,-0.073004484
3.3374765,-2.1212966,-0.20725042,34.0,6,-0.07299988
42.576813,-27.072214,11.648416,13.0,14,-0.07299758
3.794683,-2.4137568,-0.07850093,31.0,7,-0.072995275
42.632,-27.128206,13.53986,23.0,15,-0.072992966
1.8694038,-1.1932364,-0.59424853,45.0,0,-0.0729661
4.3517027,-2.778751,0.09012423,40.0,8,-0.0729638
2.0134237,-1.2861532,-0.55158,43.0,1,-0.072961494
5.2464066,-3.3513477,0.32626238,46.0,9,-0.072959185
2.1836991,-1.3954599,-0.5037358,55.0,2,-0.07295688
6.62911,-4.2378626,0.68835604,38.0,10,-0.07295458
2.4013844,-1.5357492,-0.45146993,49.0,3,-0.07295228
8.844049,-5.6581807,1.289134,31.0,11,-0.07294997
2.6068962,-1.6678208,-0.37998864,44.0,4,-0.072947666
16.919073,-10.828522,3.1815646,23.0,12,-0.072945364
2.9095325,-1.862871,-0.3022561,39.0,5,-0.07294306
3.3532224,-2.1486003,-0.20871581,36.0,6,-0.07293845
43.4649,-27.850433,11.917907,7.0,14,-0.07293615
3.7256274,-2.388139,-0.07724435,31.0,7,-0.072933845
42.66714,-27.360277,13.581271,23.0,15,-0.072931536
1.867062,-1.200474,-0.5947662,48.0,0,-0.0729108
4.337419,-2.7899215,0.09001952,42.0,8,-0.0729085
2.020619,-1.3002044,-0.5547293,48.0,1,-0.072906196
5.258778,-3.3838573,0.32772776,41.0,9,-0.072903894
2.192266,-1.411195,-0.50678873,50.0,2,-0.072901584
6.621721,-4.264137,0.6890533,30.0,10,-0.07289928
2.4029205,-1.5479832,-0.4527214,51.0,3,-0.07289698
8.811889,-5.6788745,1.2871841,23.0,11,-0.07289468
2.6597524,-1.7140932,-0.3885195,45.0,4,-0.07289237
17.087282,-11.016224,3.2200475,31.0,12,-0.072890066
2.9200826,-1.8833076,-0.30399922,41.0,5,-0.07288776
37.748188,-24.355028,8.732183,22.0,13,-0.07288546
3.3796403,-2.1813705,-0.21080926,38.0,6,-0.07288315
42.4505,-27.399445,11.664613,19.0,14,-0.07288085
3.8218439,-2.4677334,-0.07940845,33.0,7,-0.07287855
42.81959,-27.658846,13.658916,23.0,15,-0.072876245
1.8695563,-1.2108594,-0.5968367,48.0,0,-0.07285551
4.3784904,-2.8369105,0.09106666,42.0,8,-0.0728532
2.0179315,-1.3079579,-0.55517924,47.0,1,-0.0728509
5.2720714,-3.4184926,0.32929787,45.0,9,-0.072848596
2.1892216,-1.4195251,-0.5071704,46.0,2,-0.07284629
6.7161927,-4.356548,0.70038354,33.0,10,-0.072843984
2.389489,-1.5505666,-0.45115703,46.0,3,-0.07284168
8.8862505,-5.7685933,1.3008335,32.0,11,-0.07283938
2.6554174,-1.7244483,-0.38876322,47.0,4,-0.07283708
17.154741,-11.144676,3.240071,19.0,12,-0.07283477
2.9288583,-1.9027495,-0.30556804,33.0,5,-0.072832465
3.3422472,-2.1729698,-0.20892516,30.0,6,-0.07282786
3.793093,-2.467972,-0.07898959,33.0,7,-0.07282325
42.735737,-27.81658,13.663057,23.0,15,-0.07282095
1.8572294,-1.2120987,-0.59424853,39.0,0,-0.07280021
4.422142,-2.887159,0.092183605,43.0,8,-0.07279791
2.0051959,-1.3096656,-0.5529297,50.0,1,-0.0727956
5.316954,-3.4740186,0.3328567,48.0,9,-0.0727933
2.1941142,-1.4336015,-0.50946003,43.0,2,-0.072790995
6.7776604,-4.4301095,0.70840186,33.0,10,-0.07278869
2.4039016,-1.5718712,-0.4549115,46.0,3,-0.07278638
8.940816,-5.848478,1.3118018,30.0,11,-0.07278408
2.6560264,-1.7380548,-0.3897382,41.0,4,-0.07278178
16.634789,-10.889647,3.1490262,2.0,12,-0.07277948
2.9538708,-1.9336952,-0.30887994,39.0,5,-0.072777174
44.883667,-29.39343,10.428857,33.0,13,-0.072774865
3.344666,-2.1911902,-0.20955318,33.0,6,-0.07277256
3.7643874,-2.4680405,-0.07857074,35.0,7,-0.07276796
42.65453,-27.97618,13.668234,24.0,15,-0.07276565
1.852987,-1.2185743,-0.59424853,45.0,0,-0.07274491
4.4153786,-2.904776,0.092253424,37.0,8,-0.07274261
2.013635,-1.3252275,-0.5565289,50.0,1,-0.07274031
5.319809,-3.5024416,0.33379877,46.0,9,-0.072738
2.1743388,-1.4315355,-0.5060255,44.0,2,-0.0727357
6.7588277,-4.4515495,0.70805323,33.0,10,-0.072733395
2.3819048,-1.5693843,-0.4517828,45.0,3,-0.07273109
8.926976,-5.884021,1.3127767,30.0,11,-0.07272879
2.6449711,-1.7440372,-0.38900697,41.0,4,-0.07272648
17.333754,-11.433846,3.2888784,22.0,12,-0.07272418
2.9637346,-1.9549652,-0.31062305,45.0,5,-0.072721876
3.356999,-2.2160556,-0.21080926,37.0,6,-0.072717264
3.8341675,-2.5329711,-0.08021126,42.0,7,-0.07271266
1.8471118,-1.223968,-0.5937309,43.0,0,-0.072689615
4.4185457,-2.92901,0.09253266,39.0,8,-0.07268731
2.015493,-1.3365564,-0.5583285,56.0,1,-0.07268501
5.3458304,-3.546384,0.33620623,45.0,9,-0.07268271
2.1496966,-1.4260926,-0.50144607,44.0,2,-0.072680406
6.754868,-4.4828277,0.70927346,30.0,10,-0.0726781
2.3928695,-1.5886148,-0.4549115,43.0,3,-0.072675794
9.027097,-5.995318,1.3305696,26.0,11,-0.07267349
2.6454809,-1.7576532,-0.38998193,41.0,4,-0.07267119
17.42864,-11.583947,3.314534,5.0,12,-0.07266888
2.981782,-1.9818416,-0.31323773,36.0,5,-0.07266658
47.12639,-31.334412,11.000521,36.0,13,-0.072664276
3.3642094,-2.2377152,-0.2117513,43.0,6,-0.07266197
44.166428,-29.38857,12.247685,15.0,14,-0.072659664
3.840284,-2.556312,-0.080525406,35.0,7,-0.07265736
42.377785,-28.219744,13.642352,23.0,15,-0.07265506
1.8364016,-1.2261171,-0.5916603,41.0,0,-0.072634324
