x,y,z,intensity,ring,time
2.5912251,-2.7315364,-0.59632826,19.0,3,-0.06604537
30.410025,-32.067894,5.426355,8.0,11,-0.06604307
2.9321437,-3.0930762,-0.523307,20.0,4,-0.06604077
3.3809276,-3.5677388,-0.4300264,23.0,5,-0.06603616
3.8425064,-4.0576577,-0.29287204,35.0,6,-0.06603155
48.229065,-50.947346,16.196476,17.0,14,-0.06602924
4.7762933,-5.047258,-0.12129422,29.0,7,-0.06602694
1.907942,-2.0218291,-0.7448812,24.0,0,-0.066003904
6.0527287,-6.416265,0.15396513,71.0,8,-0.0660016
2.076325,-2.201802,-0.698698,20.0,1,-0.06599929
8.701178,-9.22701,0.6646667,16.0,9,-0.06599699
2.3162987,-2.4571369,-0.656383,22.0,2,-0.06599469
13.971616,-14.82632,1.7823349,38.0,10,-0.065992385
2.5925105,-2.7520676,-0.5988312,21.0,3,-0.065990075
30.872211,-32.78371,5.5292125,9.0,11,-0.06598777
2.9199681,-3.1018474,-0.5230633,23.0,4,-0.06598547
3.379377,-3.591127,-0.43142092,23.0,5,-0.06598086
3.8474743,-4.091416,-0.29433745,35.0,6,-0.065976255
4.7321367,-5.0339293,-0.12059613,29.0,7,-0.06597164
1.9008728,-2.0284767,-0.7448812,24.0,0,-0.065948606
6.03552,-6.440679,0.15406984,83.0,8,-0.0659463
2.073009,-2.2129421,-0.7000477,21.0,1,-0.065944
8.713968,-9.305435,0.66812086,18.0,9,-0.06594169
2.3036826,-2.4609077,-0.65523815,21.0,2,-0.06593939
14.01099,-14.972469,1.7940139,28.0,10,-0.06593709
2.5887692,-2.766419,-0.6000827,22.0,3,-0.065934785
30.942331,-33.077267,5.561386,9.0,11,-0.065932475
2.9178011,-3.1202126,-0.5245257,22.0,4,-0.06593017
48.9392,-52.35249,11.350574,46.0,12,-0.06592787
3.3572984,-3.5927112,-0.43020076,26.0,5,-0.06592557
3.8434293,-4.114369,-0.29507017,37.0,6,-0.06592096
47.40501,-50.764553,16.035412,16.0,14,-0.065918654
4.7213593,-5.057726,-0.120770656,33.0,7,-0.06591635
48.954952,-52.46103,19.226633,56.0,15,-0.06591405
1.8901871,-2.0305274,-0.74332833,23.0,0,-0.06589331
6.0130014,-6.461707,0.15406984,76.0,8,-0.065891005
2.0692537,-2.224445,-0.70139736,22.0,1,-0.0658887
8.734476,-9.3928385,0.6722031,16.0,9,-0.0658864
2.300857,-2.4742842,-0.65676457,21.0,2,-0.06588409
14.069782,-15.135591,1.8079587,28.0,10,-0.06588179
2.5804415,-2.7768855,-0.60039556,21.0,3,-0.06587949
31.121208,-33.502132,5.6145215,9.0,11,-0.065877184
2.9203997,-3.144925,-0.5269631,22.0,4,-0.065874875
50.097393,-53.96785,11.662816,51.0,12,-0.06587257
3.3236783,-3.5804613,-0.42741176,30.0,5,-0.06587027
3.8630016,-4.1643662,-0.29768693,36.0,6,-0.065865666
47.8344,-51.584164,16.241467,17.0,14,-0.065863356
4.7091136,-5.0800414,-0.12091027,33.0,7,-0.065861054
48.64022,-52.4899,19.17487,55.0,15,-0.06585875
1.8896445,-2.044206,-0.74591655,24.0,0,-0.06583802
5.994481,-6.4870634,0.15417457,64.0,8,-0.06583571
2.0641208,-2.2345178,-0.7022972,22.0,1,-0.065833405
8.753124,-9.47903,0.67618066,18.0,9,-0.0658311
2.3015292,-2.492397,-0.6594359,23.0,2,-0.0658288
14.179035,-15.360291,1.8288761,25.0,10,-0.06582649
2.5680532,-2.7829726,-0.5997698,21.0,3,-0.06582419
31.73358,-34.401398,5.746628,9.0,11,-0.065821886
2.913441,-3.1594782,-0.52769434,22.0,4,-0.065819584
3.3084588,-3.589111,-0.4270631,34.0,5,-0.06581497
3.845735,-4.1748877,-0.2974776,36.0,6,-0.06581037
47.58804,-51.67915,16.218971,17.0,14,-0.065808065
4.7103124,-5.117046,-0.12139894,33.0,7,-0.065805756
1.8864164,-2.055059,-0.7474695,25.0,0,-0.06578272
5.9812646,-6.5182624,0.1544189,66.0,8,-0.065780416
2.0563085,-2.241709,-0.7022972,22.0,1,-0.06577811
8.762147,-9.552157,0.67932075,18.0,9,-0.065775804
2.3021033,-2.5105448,-0.6621073,23.0,2,-0.0657735
14.144178,-15.430253,1.8313165,21.0,10,-0.0657712
2.567665,-2.8021147,-0.6019599,22.0,3,-0.0657689
31.868065,-34.790077,5.7929378,10.0,11,-0.06576659
2.898373,-3.1652367,-0.5269631,23.0,4,-0.065764286
3.2905295,-3.5947597,-0.42636588,38.0,5,-0.06575968
3.8149624,-4.1706014,-0.29622155,34.0,6,-0.06575507
47.47311,-51.91685,16.241467,17.0,14,-0.06575277
4.7135596,-5.154774,-0.121922515,29.0,7,-0.065750465
51.66804,-56.52426,20.519693,62.0,15,-0.065748155
1.8844371,-2.067342,-0.74954,24.0,0,-0.06572742
5.974435,-6.5543184,0.15480286,71.0,8,-0.06572512
2.052801,-2.2528372,-0.7036469,20.0,1,-0.065722816
8.761029,-9.618122,0.6818329,18.0,9,-0.06572051
2.2893603,-2.5142107,-0.6609624,23.0,2,-0.065718204
14.302133,-15.712329,1.8588576,21.0,10,-0.0657159
2.5650074,-2.8179183,-0.60352427,23.0,3,-0.0657136
32.57282,-35.797062,5.942593,10.0,11,-0.0657113
2.887861,-3.1748307,-0.5269631,26.0,4,-0.06570899
3.26858,-3.5959034,-0.42514572,45.0,5,-0.06570438
3.837376,-4.2231402,-0.29904768,36.0,6,-0.06569977
47.405502,-52.189384,16.277458,17.0,14,-0.06569747
4.7009144,-5.177118,-0.12206213,29.0,7,-0.06569517
1.874978,-2.070716,-0.7485047,24.0,0,-0.06567213
5.944809,-6.56772,0.15462832,83.0,8,-0.06566982
2.0553844,-2.271549,-0.70724607,21.0,1,-0.06566752
8.766255,-9.691601,0.6848684,23.0,9,-0.065665215
2.2770596,-2.5174205,-0.6598175,20.0,2,-0.06566291
14.739025,-16.30056,1.9226557,22.0,10,-0.0656606
2.560454,-2.8327162,-0.6047757,23.0,3,-0.0656583
2.8780916,-3.186365,-0.52720684,30.0,4,-0.0656537
3.2506685,-3.6013749,-0.42444846,41.0,5,-0.065649085
3.8681023,-4.2869263,-0.30260652,42.0,6,-0.06564448
47.15256,-52.27641,16.253164,17.0,14,-0.06564217
4.6948657,-5.206862,-0.12237628,35.0,7,-0.06563987
1.8673759,-2.077574,-0.7485047,22.0,0,-0.06561683
5.936552,-6.60479,0.15501226,90.0,8,-0.06561453
2.0526526,-2.284508,-0.7090457,19.0,1,-0.06561222
8.784422,-9.780091,0.6889506,26.0,9,-0.06560992
2.2756872,-2.5345142,-0.6621073,22.0,2,-0.065607615
15.07577,-16.796324,1.9746004,23.0,10,-0.06560531
2.5474157,-2.8391411,-0.60415,21.0,3,-0.065603
2.8696024,-3.1993475,-0.52769434,37.0,4,-0.0655984
3.2274392,-3.6008306,-0.42305395,39.0,5,-0.06559379
3.8750174,-4.3263664,-0.30438596,45.0,6,-0.06558918
47.428604,-52.971535,16.415127,17.0,14,-0.06558688
4.684665,-5.232157,-0.1225857,33.0,7,-0.06558458
1.8652577,-2.0898447,-0.75057524,22.0,0,-0.06556153
5.921623,-6.6369495,0.15525661,72.0,8,-0.06555923
2.040374,-2.2876532,-0.707696,22.0,1,-0.06555693
8.731238,-9.792842,0.6875898,33.0,9,-0.06555462
2.2694395,-2.5453732,-0.66287047,21.0,2,-0.06555232
15.292787,-17.158215,2.010857,27.0,10,-0.065550014
2.5401177,-2.8509657,-0.6047757,21.0,3,-0.06554771
2.844657,-3.1950176,-0.52525693,37.0,4,-0.0655431
3.2227979,-3.6210043,-0.42409983,45.0,5,-0.065538496
3.8532553,-4.3324046,-0.3038626,42.0,6,-0.065533884
4.6840553,-5.2702174,-0.123074375,35.0,7,-0.06552928
1.8707647,-2.1108005,-0.7557516,22.0,0,-0.065506235
5.924942,-6.6875143,0.15595472,63.0,8,-0.06550393
2.0336685,-2.2962203,-0.7081459,21.0,1,-0.06550163
8.71686,-9.845692,0.6891599,32.0,9,-0.06549933
2.2683487,-2.5620992,-0.6651602,22.0,2,-0.065497026
15.454638,-17.462147,2.0401416,32.0,10,-0.065494716
2.5314596,-2.8612945,-0.6050886,23.0,3,-0.065492414
37.663223,-42.585503,6.980433,14.0,11,-0.06549011
2.8269124,-3.1974916,-0.5240382,40.0,4,-0.06548781
51.874672,-58.695545,12.406819,61.0,12,-0.0654855
3.2220132,-3.645668,-0.42566866,49.0,5,-0.0654832
3.8262095,-4.3323555,-0.30292055,42.0,6,-0.06547859
4.6484284,-5.267045,-0.12262061,33.0,7,-0.06547398
1.860833,-2.1144173,-0.75471634,23.0,0,-0.065450944
5.922695,-6.7321777,0.15651318,78.0,8,-0.06544864
2.0295014,-2.307695,-0.7094956,20.0,1,-0.06544633
8.671889,-9.8640585,0.68832254,33.0,9,-0.06544403
2.2645764,-2.5758996,-0.66668665,21.0,2,-0.06544173
15.56457,-17.710543,2.062802,28.0,10,-0.065439425
2.5305827,-2.8805017,-0.60727865,27.0,3,-0.065437116
2.8065662,-3.1968973,-0.5223321,43.0,4,-0.06543251
3.2026968,-3.649405,-0.42479706,45.0,5,-0.0654279
3.8268661,-4.3637047,-0.3041766,42.0,6,-0.065423295
48.019768,-54.775333,16.81734,18.0,14,-0.06542099
4.6471486,-5.3027897,-0.123074375,35.0,7,-0.06541868
1.853441,-2.1209,-0.75471634,22.0,0,-0.065395646
5.920209,-6.7769065,0.15707165,96.0,8,-0.06539334
2.0329702,-2.3279757,-0.7135447,23.0,1,-0.06539104
8.696512,-9.961975,0.6930328,31.0,9,-0.06538873
2.251698,-2.5793514,-0.6655418,23.0,2,-0.06538643
15.565534,-17.83682,2.0711691,24.0,10,-0.06538413
2.5179155,-2.8863404,-0.6066529,28.0,3,-0.065381825
2.7953901,-3.2066743,-0.5223321,43.0,4,-0.06537721
3.1847026,-3.6545544,-0.42409983,35.0,5,-0.06537261
3.828662,-4.396617,-0.30553734,42.0,6,-0.065368
4.6404243,-5.332555,-0.123388514,30.0,7,-0.06536339
1.8371632,-2.1171432,-0.7510929,20.0,0,-0.06534035
5.907,-6.809615,0.1573509,94.0,8,-0.065338045
2.028662,-2.3394747,-0.7148945,20.0,1,-0.06533574
8.709226,-10.043572,0.6966963,32.0,9,-0.06533344
2.2439666,-2.5886793,-0.6659234,21.0,2,-0.06533113
15.769347,-18.198215,2.1067286,12.0,10,-0.06532883
2.5000646,-2.8861535,-0.6047757,28.0,3,-0.06532653
2.78734,-3.218928,-0.5228196,42.0,4,-0.065321915
3.1719265,-3.6656485,-0.42409983,34.0,5,-0.06531731
48.18633,-55.70636,14.317163,57.0,13,-0.06531501
3.8263552,-4.4250617,-0.30658406,40.0,6,-0.0653127
4.6148686,-5.338837,-0.12317909,30.0,7,-0.065308094
1.8339165,-2.1276135,-0.75264585,17.0,0,-0.06528506
5.890912,-6.836741,0.15752542,67.0,8,-0.06528275
2.0170774,-2.3417597,-0.7135447,20.0,1,-0.065280445
8.72019,-10.12385,0.7002552,32.0,9,-0.06527814
2.2430558,-2.6050327,-0.6682131,22.0,2,-0.06527584
16.187225,-18.806105,2.170875,25.0,10,-0.06527353
2.4827495,-2.8854437,-0.6028985,32.0,3,-0.06527123
23.58923,-27.425007,4.4416504,6.0,11,-0.06526893
2.7766502,-3.2281535,-0.5228196,42.0,4,-0.065266624
3.1623507,-3.6791692,-0.42444846,37.0,5,-0.06526201
3.8116603,-4.4377265,-0.30658406,35.0,6,-0.06525741
4.6075606,-5.3662486,-0.123458326,33.0,7,-0.065252796
1.8406715,-2.1498256,-0.7583398,11.0,0,-0.06522976
5.8903136,-6.8820643,0.1581188,83.0,8,-0.06522746
2.0054998,-2.3439937,-0.71219504,18.0,1,-0.06522515
8.719849,-10.1952095,0.7030813,31.0,9,-0.065222844
2.2377765,-2.6173232,-0.669358,22.0,2,-0.06522054
16.311218,-19.077745,2.195976,25.0,10,-0.06521824
2.4783013,-2.8996677,-0.60415,41.0,3,-0.06521593
23.477524,-27.478935,4.437751,5.0,11,-0.06521363
2.7614973,-3.2332978,-0.52208835,40.0,4,-0.065211326
3.1727703,-3.7174637,-0.42758605,35.0,5,-0.06520672
3.810403,-4.4677205,-0.30773544,33.0,6,-0.06520211
4.6173434,-5.415777,-0.124226235,33.0,7,-0.065197505
1.8290266,-2.152141,-0.7567869,16.0,0,-0.06517446
5.8779974,-6.918847,0.15846786,72.0,8,-0.06517216
1.9981568,-2.3528137,-0.71264493,17.0,1,-0.065169856
8.71603,-10.266688,0.7058028,30.0,9,-0.06516755
2.2268982,-2.6240108,-0.66897637,22.0,2,-0.065165244
16.9309,-19.950111,2.2892327,13.0,10,-0.06516294
2.4574332,-2.8966808,-0.601647,36.0,3,-0.06516064
23.397194,-27.589024,4.4416504,6.0,11,-0.06515834
2.725238,-3.2146277,-0.5174573,38.0,4,-0.06515603
3.1591241,-3.7290676,-0.42758605,41.0,5,-0.06515142
3.7965832,-4.4847054,-0.3079448,36.0,6,-0.06514681
4.6026297,-5.43877,-0.12436585,33.0,7,-0.06514221
1.8236177,-2.161784,-0.7578222,17.0,0,-0.06511917
5.871936,-6.9632754,0.15899143,67.0,8,-0.06511686
1.9995681,-2.3720412,-0.71624416,19.0,1,-0.06511456
8.752989,-10.387147,0.7118737,31.0,9,-0.065112256
2.214736,-2.6291518,-0.6682131,21.0,2,-0.06510995
17.115671,-20.318314,2.3242693,9.0,10,-0.06510764
2.4468,-2.9056683,-0.601647,37.0,3,-0.06510534
42.706837,-50.733963,8.142579,32.0,11,-0.06510304
2.7326093,-3.2473779,-0.52111334,47.0,4,-0.06510074
3.1556935,-3.7528205,-0.42898056,39.0,5,-0.065096125
3.7814057,-4.500119,-0.30804947,40.0,6,-0.06509152
4.6019573,-5.4785705,-0.12488942,35.0,7,-0.06508691
1.8181627,-2.1714156,-0.7588575,22.0,0,-0.06506387
5.882313,-7.027686,0.15996876,74.0,8,-0.06506157
1.9958626,-2.3853323,-0.71804374,19.0,1,-0.06505926
8.726392,-10.432947,0.7128158,30.0,9,-0.06505696
2.2101223,-2.6432762,-0.6697396,24.0,2,-0.065054655
16.9299,-20.24793,2.3091042,13.0,10,-0.06505235
2.4399343,-2.919164,-0.6025856,40.0,3,-0.06505004
42.553696,-50.92976,8.148916,32.0,11,-0.06504774
2.7346869,-3.2741308,-0.5237945,42.0,4,-0.06504544
3.139364,-3.7613025,-0.42863193,45.0,5,-0.06504083
3.7763999,-4.5277524,-0.30899152,43.0,6,-0.06503622
4.581846,-5.495401,-0.12488942,40.0,7,-0.06503162
1.810952,-2.1774328,-0.7588575,23.0,0,-0.065001726
5.862811,-7.051767,0.16007347,72.0,8,-0.064999424
1.9854505,-2.3889406,-0.71714395,20.0,1,-0.06499712
8.211022,-9.879694,0.6732498,32.0,9,-0.06499481
2.2043164,-2.6532269,-0.67050284,29.0,2,-0.06499251
16.441319,-19.796629,2.2514071,21.0,10,-0.06499021
2.4251933,-2.9211593,-0.60133415,39.0,3,-0.064987905
42.338936,-51.015606,8.140142,32.0,11,-0.064985596
2.7332616,-3.2933986,-0.52550066,41.0,4,-0.06498329
3.158057,-3.807953,-0.4328154,39.0,5,-0.06497869
3.7545102,-4.530368,-0.30836347,43.0,6,-0.06497408
4.560732,-5.5051484,-0.12478471,33.0,7,-0.06496947
1.8098731,-2.190873,-0.76144564,20.0,0,-0.06494643
5.8623137,-7.0989246,0.16070175,90.0,8,-0.064944126
1.9762769,-2.3940084,-0.71669406,20.0,1,-0.06494182
8.690625,-10.527588,0.7154326,31.0,9,-0.06493952
2.195506,-2.6605217,-0.67050284,29.0,2,-0.06493721
16.30331,-19.763437,2.2414713,13.0,10,-0.06493491
2.4167497,-2.9307096,-0.601647,36.0,3,-0.06493261
42.18215,-51.17104,8.142579,32.0,11,-0.064930305
2.7324264,-3.3146982,-0.52745056,45.0,4,-0.064927995
3.1555462,-3.8307073,-0.4342099,38.0,5,-0.06492339
3.725504,-4.5258307,-0.30721208,47.0,6,-0.06491878
4.547534,-5.5264187,-0.12492433,28.0,7,-0.064914174
1.8038235,-2.1983562,-0.7619633,18.0,0,-0.06489114
5.8603,-7.1446095,0.16129515,85.0,8,-0.06488883
1.9720342,-2.4050696,-0.71804374,19.0,1,-0.064886525
8.637364,-10.53778,0.71407187,32.0,9,-0.06488422
2.183717,-2.6651323,-0.6697396,29.0,2,-0.06488192
16.343756,-19.946848,2.2561135,13.0,10,-0.06487961
2.4170315,-2.9509332,-0.60415,38.0,3,-0.06487731
2.7220967,-3.3257527,-0.52769434,43.0,4,-0.064872704
3.13711,-3.8355296,-0.4335127,45.0,5,-0.06486809
3.7160025,-4.54654,-0.30773544,50.0,6,-0.06486349
4.548459,-5.5670357,-0.12548281,28.0,7,-0.064858876
1.7981937,-2.2079487,-0.7629986,22.0,0,-0.06483584
5.844175,-7.1784463,0.16157438,74.0,8,-0.06483354
1.9742764,-2.4258842,-0.72209287,23.0,1,-0.06483123
8.596162,-10.566266,0.7138625,33.0,9,-0.064828925
2.1627858,-2.6594098,-0.66630507,39.0,2,-0.06482662
16.477957,-20.261665,2.284875,18.0,10,-0.06482432
2.409938,-2.9643705,-0.6050886,45.0,3,-0.06482201
2.7274127,-3.3572774,-0.53110665,53.0,4,-0.064817406
3.112985,-3.8346272,-0.43211815,45.0,5,-0.0648128
3.7144127,-4.578742,-0.30899152,43.0,6,-0.06480819
57.26007,-70.58427,20.983435,49.0,14,-0.06480589
4.5569935,-5.6193924,-0.12628561,47.0,7,-0.064803585
1.7803736,-2.2025054,-0.7588575,18.0,0,-0.06478054
5.8203382,-7.2029285,0.16164419,67.0,8,-0.06477824
1.97027,-2.439168,-0.7238925,25.0,1,-0.06477594
8.575542,-10.616406,0.71522325,31.0,9,-0.06477363
2.1510227,-2.663888,-0.6655418,36.0,2,-0.064771324
16.404833,-20.323473,2.2850492,13.0,10,-0.06476902
2.3940947,-2.967034,-0.6038371,41.0,3,-0.06476672
38.546654,-47.78846,7.5385942,20.0,11,-0.06476442
2.7213194,-3.3749778,-0.5323253,56.0,4,-0.06476211
3.1095834,-3.8578799,-0.4335127,44.0,5,-0.0647575
3.7071774,-4.602568,-0.3097242,45.0,6,-0.06475289
56.949654,-70.72991,20.964539,49.0,14,-0.06475059
4.5210466,-5.6150165,-0.12583186,45.0,7,-0.06474829
1.782348,-2.2207596,-0.7629986,18.0,0,-0.06472524
5.7876587,-7.211273,0.16139986,83.0,8,-0.06472294
1.9621707,-2.4456882,-0.7238925,26.0,1,-0.06472064
8.543431,-10.652509,0.7156419,40.0,9,-0.064718336
2.146623,-2.6775074,-0.66706824,34.0,2,-0.06471603
16.589222,-20.699327,2.3207831,13.0,10,-0.064713724
2.378066,-2.9672499,-0.60227275,38.0,3,-0.06471142
38.531948,-48.095737,7.5668683,20.0,11,-0.06470912
2.711354,-3.385533,-0.5325691,48.0,4,-0.06470682
3.1010773,-3.8749332,-0.4342099,37.0,5,-0.064702205
3.6869035,-4.608598,-0.30930555,43.0,6,-0.0646976
4.5251436,-5.66044,-0.12649503,42.0,7,-0.06469299
1.7797908,-2.2327003,-0.7650691,16.0,0,-0.06466995
5.788623,-7.264275,0.16213286,74.0,8,-0.06466765
1.9524075,-2.4509983,-0.72344255,27.0,1,-0.06466534
8.501218,-10.676015,0.71522325,37.0,9,-0.06466304
2.1352866,-2.6815393,-0.66630507,36.0,2,-0.064660735
16.547787,-20.78852,2.3246179,13.0,10,-0.06465843
2.3726137,-2.981716,-0.60352427,34.0,3,-0.06465612
2.6958127,-3.3903153,-0.5318379,52.0,4,-0.06465152
3.094409,-3.8929942,-0.43508145,38.0,5,-0.06464691
3.6707942,-4.6214395,-0.30930555,42.0,6,-0.0646423
4.5426536,-5.7231903,-0.1275422,40.0,7,-0.06463769
1.7767819,-2.2449586,-0.76713973,16.0,0,-0.06461465
5.7408967,-7.2562075,0.16150458,85.0,8,-0.06461235
1.9426312,-2.4562702,-0.7229927,32.0,1,-0.06461005
8.461422,-10.702493,0.7150139,40.0,9,-0.06460774
2.1405241,-2.7074578,-0.6708845,33.0,2,-0.06460544
16.483768,-20.857098,2.325838,13.0,10,-0.064603135
2.3719876,-3.0023794,-0.6060272,38.0,3,-0.06460083
2.6815019,-3.3965888,-0.5313504,56.0,4,-0.06459622
3.0980816,-3.925668,-0.43752185,49.0,5,-0.06459162
3.6546402,-4.6342244,-0.30930555,42.0,6,-0.064587004
4.530074,-5.748435,-0.12775162,37.0,7,-0.0645824
1.7641604,-2.2450712,-0.7650691,22.0,0,-0.064559355
5.760002,-7.3328147,0.16276114,61.0,8,-0.06455705
1.9328419,-2.4615035,-0.72254276,33.0,1,-0.06455475
8.491838,-10.818372,0.72077084,31.0,9,-0.06455245
2.1310604,-2.7149134,-0.6708845,29.0,2,-0.06455014
16.409636,-20.912943,2.3256638,4.0,10,-0.06454784
2.3724654,-3.0246298,-0.608843,41.0,3,-0.064545535
38.30791,-48.85589,7.622928,44.0,11,-0.06454323
2.66718,-3.4028041,-0.5308629,52.0,4,-0.06454092
3.0769868,-3.9270484,-0.43647596,37.0,5,-0.06453632
3.6445975,-4.654816,-0.30982888,40.0,6,-0.06453171
4.539555,-5.8020115,-0.12858933,37.0,7,-0.0645271
1.7551247,-2.2496924,-0.7645515,24.0,0,-0.064504065
5.730682,-7.348146,0.16265643,78.0,8,-0.064501755
1.9302287,-2.4759197,-0.7247923,40.0,1,-0.06449945
8.489627,-10.893633,0.7238064,28.0,9,-0.06449715
2.11795,-2.7176898,-0.6697396,30.0,2,-0.06449485
17.085896,-21.931997,2.4323423,4.0,10,-0.06449254
2.3667476,-3.0391269,-0.6100945,41.0,3,-0.06449024
38.01032,-48.826405,7.5975795,43.0,11,-0.064487934
2.655286,-3.4120936,-0.5308629,45.0,4,-0.06448563
3.0583663,-3.931475,-0.43577868,33.0,5,-0.06448102
3.6234236,-4.6612024,-0.30941018,40.0,6,-0.064476416
4.5364485,-5.839931,-0.129078,40.0,7,-0.0644718
1.746078,-2.254278,-0.76403385,25.0,0,-0.06444877
5.734378,-7.406052,0.16349414,78.0,8,-0.064446464
1.9096465,-2.467232,-0.7202933,48.0,1,-0.064444155
8.538325,-11.035356,0.73123807,23.0,9,-0.06444185
2.1132562,-2.7312772,-0.6712661,37.0,2,-0.06443955
16.855644,-21.79293,2.4103792,9.0,10,-0.06443725
2.3488753,-3.0379934,-0.6082173,45.0,3,-0.064434946
37.783813,-48.886536,7.5863676,21.0,11,-0.064432636
2.6482139,-3.4276242,-0.5318379,49.0,4,-0.06443033
3.0378487,-3.9347727,-0.43490714,41.0,5,-0.06442573
3.6059113,-4.672241,-0.30930555,38.0,6,-0.06442112
55.697002,-72.19362,21.050919,50.0,14,-0.064418815
4.550229,-5.9000683,-0.13005532,42.0,7,-0.06441651
1.741336,-2.2652574,-0.7655868,27.0,0,-0.06439347
5.690211,-7.4022427,0.16297057,80.0,8,-0.064391166
1.8986478,-2.4707925,-0.7193935,48.0,1,-0.064388864
8.491237,-11.054006,0.73050535,28.0,9,-0.06438656
2.108014,-2.745233,-0.67279255,38.0,2,-0.06438425
17.18328,-22.385595,2.468948,4.0,10,-0.06438195
2.3473449,-3.0591192,-0.6107202,46.0,3,-0.06437965
37.72653,-49.16617,7.6092787,21.0,11,-0.064377345
2.627776,-3.425822,-0.5301317,46.0,4,-0.064375035
3.0507605,-3.9801414,-0.438742,39.0,5,-0.06437043
3.5814753,-4.6759124,-0.3086775,38.0,6,-0.06436582
55.668976,-72.70673,21.1409,51.0,14,-0.06436352
4.5587835,-5.9540215,-0.13089305,39.0,7,-0.064361215
1.7334181,-2.271322,-0.7655868,26.0,0,-0.06433818
5.7285385,-7.508901,0.16485542,70.0,8,-0.06433587
1.8895792,-2.4777346,-0.7193935,48.0,1,-0.064333566
8.385986,-10.996231,0.7247484,30.0,9,-0.06433126
2.1043699,-2.760381,-0.6747007,30.0,2,-0.06432896
17.131603,-22.480303,2.4727826,4.0,10,-0.06432665
2.3306673,-3.0594378,-0.6091559,36.0,3,-0.06432435
2.6218147,-3.4428701,-0.5313504,45.0,4,-0.064319745
3.0368483,-3.9907665,-0.438742,37.0,5,-0.06431513
3.5663404,-4.6899753,-0.30878216,36.0,6,-0.06431053
4.5524936,-5.9890013,-0.13131191,44.0,7,-0.06430592
1.7165413,-2.264741,-0.76144564,28.0,0,-0.06428288
5.747081,-7.5852356,0.166112,57.0,8,-0.06428058
1.8837054,-2.4870942,-0.7202933,48.0,1,-0.06427827
8.32174,-10.987361,0.72234094,35.0,9,-0.064275965
2.0928345,-2.7642136,-0.6739374,33.0,2,-0.06427366
18.122272,-23.944557,2.6272225,10.0,10,-0.06427136
2.3228924,-3.0703,-0.6097816,38.0,3,-0.06426905
2.6151733,-3.4578784,-0.5323253,39.0,4,-0.06426445
3.0211954,-3.9976356,-0.43839338,40.0,5,-0.064259835
3.559194,-4.7129326,-0.30951488,38.0,6,-0.06425523
55.71168,-73.771034,21.342457,52.0,14,-0.06425293
4.5675483,-6.0503488,-0.13232414,36.0,7,-0.064250626
1.7078599,-2.2688773,-0.760928,38.0,0,-0.06422758
5.703861,-7.5802846,0.16558844,74.0,8,-0.06422528
1.8777903,-2.4964418,-0.7211931,45.0,1,-0.06422298
8.261731,-10.987607,0.72045684,27.0,9,-0.06422067
2.0883763,-2.777415,-0.6754639,33.0,2,-0.064218365
18.181631,-24.18927,2.6474428,10.0,10,-0.06421606
2.3032053,-3.0653522,-0.60727865,31.0,3,-0.06421376
2.6161978,-3.4844482,-0.53500646,46.0,4,-0.06420915
3.0036354,-4.0033765,-0.43787044,42.0,5,-0.064204544
3.5507362,-4.7342963,-0.3101429,36.0,6,-0.06419993
4.5811796,-6.1126604,-0.13333638,44.0,7,-0.06419533
1.6995325,-2.2751217,-0.760928,40.0,0,-0.06417228
5.700104,-7.6305866,0.16625161,61.0,8,-0.06416998
1.8713965,-2.506104,-0.72209287,39.0,1,-0.06416768
8.353552,-11.190836,0.73186606,30.0,9,-0.064165376
2.0875752,-2.7976387,-0.67851686,29.0,2,-0.064163074
2.2990398,-3.0832748,-0.6091559,38.0,3,-0.06415846
2.6146958,-3.5078835,-0.5372001,45.0,4,-0.06415386
55.940712,-75.07756,14.829051,63.0,12,-0.06415155
3.0193965,-4.0537834,-0.44222823,40.0,5,-0.064149246
3.5452845,-4.7633004,-0.31118962,33.0,6,-0.06414464
55.805862,-75.00582,21.583605,55.0,14,-0.06414233
4.5932374,-6.173537,-0.13431372,44.0,7,-0.06414003
1.6927313,-2.282592,-0.76144564,37.0,0,-0.06411699
5.678053,-7.6594596,0.16642615,65.0,8,-0.06411469
1.8563974,-2.5051177,-0.7198433,40.0,1,-0.06411238
8.387378,-11.322485,0.7384604,30.0,9,-0.06411008
2.0731225,-2.798598,-0.67699033,28.0,2,-0.064107776
18.45389,-24.920801,2.712984,5.0,10,-0.06410547
2.297665,-3.103983,-0.6116588,34.0,3,-0.064103164
2.586475,-3.4966962,-0.5340315,42.0,4,-0.06409856
55.48664,-75.040665,14.781494,63.0,12,-0.06409626
3.0104396,-4.0728335,-0.44309977,42.0,5,-0.06409395
3.566617,-4.82705,-0.31453913,39.0,6,-0.06408934
56.243008,-76.14694,21.855345,57.0,14,-0.06408704
4.5895844,-6.216069,-0.1348722,46.0,7,-0.06408473
1.6923691,-2.2996724,-0.7650691,34.0,0,-0.064061694
5.693951,-7.7372146,0.16768272,65.0,8,-0.06405939
1.8499513,-2.514722,-0.7207432,43.0,1,-0.06405709
8.4732275,-11.522251,0.74955565,26.0,9,-0.06405478
2.0616882,-2.8045962,-0.67660874,32.0,2,-0.06405248
18.291637,-24.891937,2.7025251,5.0,10,-0.064050175
2.2745786,-3.0964632,-0.6085301,34.0,3,-0.06404787
2.5660286,-3.4945028,-0.5323253,44.0,4,-0.06404326
2.9985616,-4.08653,-0.44344842,49.0,5,-0.06403866
3.5571678,-4.851364,-0.31527182,39.0,6,-0.064034045
4.579679,-6.2481804,-0.13522124,44.0,7,-0.06402944
1.6900295,-2.3133655,-0.7676573,31.0,0,-0.064006396
5.695038,-7.7984037,0.16855533,61.0,8,-0.06400409
1.851063,-2.5356512,-0.7247923,41.0,1,-0.06400179
8.329325,-11.4098015,0.7403445,21.0,9,-0.06399949
2.0495713,-2.8086035,-0.6758455,32.0,2,-0.06399718
18.448868,-25.290438,2.738782,5.0,10,-0.06399488
2.2765589,-3.121941,-0.6119717,40.0,3,-0.063992575
2.534499,-3.478215,-0.5284256,39.0,4,-0.06398796
55.04517,-75.541145,14.804021,63.0,12,-0.06398566
2.9866252,-4.100193,-0.44379702,54.0,5,-0.06398336
3.546089,-4.871826,-0.31579518,35.0,6,-0.06397875
4.5448995,-6.2463427,-0.1348373,38.0,7,-0.06397414
1.6830782,-2.3208146,-0.76817495,28.0,0,-0.063951105
5.6621027,-7.807534,0.16834593,63.0,8,-0.063948795
1.8437884,-2.5433533,-0.7252422,44.0,1,-0.06394649
8.268351,-11.409697,0.7384604,25.0,9,-0.06394419
2.039755,-2.8157408,-0.6758455,34.0,2,-0.06394189
18.678326,-25.793613,2.7861948,5.0,10,-0.06393958
2.2743037,-3.1406727,-0.6141618,34.0,3,-0.06393728
2.542734,-3.5139406,-0.5325691,46.0,4,-0.06393267
2.9699597,-4.1073637,-0.44344842,57.0,5,-0.06392806
3.5193834,-4.86899,-0.31485313,39.0,6,-0.063923456
4.5160427,-6.2524424,-0.13462786,35.0,7,-0.063918844
1.6776308,-2.3295183,-0.7692102,26.0,0,-0.06389581
5.662854,-7.8662004,0.16918363,61.0,8,-0.063893504
1.8269309,-2.5387015,-0.72209287,39.0,1,-0.063891195
8.4920635,-11.804909,0.76211625,40.0,9,-0.06388889
2.0372853,-2.832052,-0.6781352,34.0,2,-0.06388659
20.014126,-27.832094,2.9992034,7.0,10,-0.06388429
2.2667856,-3.1534042,-0.6151004,41.0,3,-0.06388198
2.5246623,-3.514733,-0.5313504,44.0,4,-0.063877374
2.9632955,-4.1269007,-0.44449428,57.0,5,-0.06387277
3.5384607,-4.931551,-0.31809795,43.0,6,-0.06386816
62.786404,-87.53762,24.870588,22.0,14,-0.063865855
4.5314765,-6.3201733,-0.13574483,35.0,7,-0.06386355
1.664995,-2.329074,-0.76713973,34.0,0,-0.06384051
5.6376867,-7.889173,0.16925345,55.0,8,-0.063838206
1.8169256,-2.5434778,-0.721643,44.0,1,-0.063835904
8.331258,-11.667065,0.7513351,25.0,9,-0.0638336
2.0387962,-2.855123,-0.6819514,29.0,2,-0.06383129
20.090485,-28.145033,3.02535,14.0,10,-0.06382899
2.2442906,-3.145218,-0.6119717,39.0,3,-0.06382669
2.5112255,-3.5219083,-0.53110665,42.0,4,-0.063822076
2.9488716,-4.13722,-0.44449428,57.0,5,-0.06381747
3.5212252,-4.943872,-0.31809795,41.0,6,-0.06381286
4.5221424,-6.3538733,-0.13612877,38.0,7,-0.063808255
1.6624448,-2.342749,-0.7697279,31.0,0,-0.06378522
5.5939164,-7.8859696,0.16876477,57.0,8,-0.06378291
1.8102903,-2.5529838,-0.72254276,40.0,1,-0.063780606
8.498378,-11.989372,0.770176,31.0,9,-0.0637783
2.0220058,-2.8526125,-0.6796617,41.0,2,-0.063776
20.100393,-28.367802,3.0417354,7.0,10,-0.06377369
2.2458575,-3.1707647,-0.61541325,36.0,3,-0.06377139
2.4840078,-3.5095887,-0.52793807,35.0,4,-0.063766785
2.9459195,-4.1637526,-0.44623742,58.0,5,-0.06376217
3.5212412,-4.980596,-0.31966805,45.0,6,-0.06375757
4.5357046,-6.42025,-0.13721082,40.0,7,-0.06375296
1.6575944,-2.353276,-0.7712808,28.0,0,-0.06372992
5.6308265,-7.997011,0.17071944,60.0,8,-0.06372762
1.8125843,-2.575223,-0.7270418,40.0,1,-0.06372531
8.465669,-12.032033,0.7710134,32.0,9,-0.063723005
2.006387,-2.8516252,-0.6777536,38.0,2,-0.0637207
20.402422,-29.008179,3.1027443,15.0,10,-0.0637184
2.2268229,-3.167273,-0.61322314,40.0,3,-0.06371609
2.4968474,-3.553973,-0.53330034,39.0,4,-0.06371149
2.9359477,-4.180532,-0.44693464,54.0,5,-0.063706875
3.507276,-4.997762,-0.31998208,43.0,6,-0.06370227
4.5098214,-6.431132,-0.1371061,28.0,7,-0.063697666
1.6493701,-2.3590477,-0.7712808,26.0,0,-0.063682556
5.5822573,-7.987115,0.17009115,70.0,8,-0.063680254
1.8080485,-2.5879245,-0.7288414,43.0,1,-0.06367795
8.44306,-12.089347,0.7727928,31.0,9,-0.06367564
1.9941728,-2.8553922,-0.67699033,38.0,2,-0.06367334
20.328413,-29.118427,3.1069279,22.0,10,-0.06367104
2.23158,-3.1977057,-0.61760336,41.0,3,-0.063668735
2.4980521,-3.582206,-0.53622514,45.0,4,-0.06366412
2.9145007,-4.1809483,-0.44588876,54.0,5,-0.06365952
3.481818,-4.9985023,-0.31924936,41.0,6,-0.06365491
4.504481,-6.4714537,-0.13762967,34.0,7,-0.0636503
1.6411253,-2.364791,-0.7712808,28.0,0,-0.06362726
5.6398296,-8.129781,0.17270902,56.0,8,-0.063624956
1.7945619,-2.5878143,-0.7270418,44.0,1,-0.06362265
8.618138,-12.43226,0.79278517,32.0,9,-0.06362035
1.995378,-2.8784704,-0.6808065,38.0,2,-0.06361804
20.565948,-29.67886,3.1590471,15.0,10,-0.06361574
2.2181551,-3.202228,-0.61697763,45.0,3,-0.06361344
2.4877925,-3.5941684,-0.53671265,49.0,4,-0.063608825
2.8874187,-4.173074,-0.44397137,43.0,5,-0.06360422
3.4723,-5.0221252,-0.31998208,45.0,6,-0.06359961
4.502324,-6.5167522,-0.13825797,34.0,7,-0.063595004
1.6339563,-2.3720958,-0.77179843,31.0,0,-0.06357197
5.6204896,-8.162593,0.17298825,64.0,8,-0.06356966
1.7810981,-2.5876417,-0.7252422,43.0,1,-0.063567355
8.657266,-12.5775795,0.80021685,27.0,9,-0.06356505
1.9830925,-2.8821833,-0.6800433,41.0,2,-0.06356275
20.657555,-30.034464,3.189203,15.0,10,-0.06356044
2.208083,-3.211579,-0.61729044,38.0,3,-0.06355814
2.4707348,-3.5962858,-0.5357377,45.0,4,-0.063553534
2.8796017,-4.1929817,-0.44501722,45.0,5,-0.06354892
3.4762204,-5.065504,-0.32197085,46.0,6,-0.06354432
4.4806886,-6.5316467,-0.13825797,34.0,7,-0.063539706
1.6322082,-2.3873534,-0.77490425,35.0,0,-0.06351667
5.610319,-8.205948,0.17351182,66.0,8,-0.06351437
1.7791048,-2.603187,-0.7279416,43.0,1,-0.06351206
8.266298,-12.099786,0.7679779,26.0,9,-0.063509755
1.9763414,-2.893952,-0.68118817,33.0,2,-0.06350745
20.822193,-30.501314,3.2310376,16.0,10,-0.06350515
2.1985345,-3.2205153,-0.61760336,43.0,3,-0.06350284
2.4554398,-3.5995398,-0.53500646,42.0,4,-0.063498236
2.893003,-4.244165,-0.449375,37.0,5,-0.06349363
3.4751484,-5.1001115,-0.32343623,45.0,6,-0.06348902
4.4488583,-6.534024,-0.13797872,34.0,7,-0.063484415
1.6188574,-2.384761,-0.7723161,26.0,0,-0.06346137
5.532236,-8.152675,0.17197601,60.0,8,-0.06345907
1.7514101,-2.5819654,-0.7202933,41.0,1,-0.06345677
8.29687,-12.236016,0.7747816,23.0,9,-0.06345446
1.9623266,-2.8939903,-0.6796617,37.0,2,-0.063452154
20.81707,-30.71203,3.2460287,8.0,10,-0.06344985
2.1894956,-3.2314408,-0.6182291,41.0,3,-0.06344755
2.4450858,-3.6113763,-0.5354939,46.0,4,-0.06344294
2.8658895,-4.236085,-0.44745758,39.0,5,-0.06343833
3.4718697,-5.1337185,-0.32479697,45.0,6,-0.06343372
4.4528956,-6.5892773,-0.13881645,37.0,7,-0.06342912
1.6144226,-2.3970878,-0.7743866,26.0,0,-0.06340607
5.576353,-8.279746,0.17424482,64.0,8,-0.06340377
1.7140906,-2.5460334,-0.7085958,37.0,1,-0.06340147
8.451484,-12.558187,0.7933085,40.0,9,-0.063399166
1.9593773,-2.9125657,-0.682333,39.0,2,-0.06339686
21.204683,-31.532114,3.3244686,8.0,10,-0.063394554
2.1732285,-3.2328866,-0.61697763,41.0,3,-0.06339225
2.4424295,-3.634718,-0.5376876,45.0,4,-0.06338765
2.8466427,-4.239447,-0.44676036,37.0,5,-0.063383035
3.4641585,-5.1629944,-0.3258437,43.0,6,-0.06337843
4.4543724,-6.6413174,-0.13958435,40.0,7,-0.06337382
1.6103395,-2.409133,-0.7764572,28.0,0,-0.06335078
5.5581894,-8.3184185,0.17462878,66.0,8,-0.06334848
1.7567015,-2.630083,-0.7301911,36.0,1,-0.06334617
8.390982,-12.567485,0.7919478,42.0,9,-0.06334387
1.9546494,-2.9275513,-0.6842411,33.0,2,-0.063341565
21.393118,-32.05338,3.3715327,8.0,10,-0.06333926
2.1619308,-3.2404528,-0.61697763,41.0,3,-0.06333695
2.4478104,-3.6717246,-0.54183114,46.0,4,-0.06333235
2.8439806,-4.2675953,-0.44867775,37.0,5,-0.06332774
3.4416873,-5.1684055,-0.32542503,43.0,6,-0.06332313
4.4266777,-6.6526046,-0.13947964,34.0,7,-0.06331852
1.6008523,-2.4131296,-0.7759395,37.0,0,-0.06329548
5.623058,-8.479426,0.17759569,62.0,8,-0.06329318
1.7507403,-2.641072,-0.7315408,44.0,1,-0.06329088
8.390088,-12.661629,0.79603,30.0,9,-0.06328857
1.9465876,-2.9376292,-0.68500435,31.0,2,-0.06328627
21.45274,-32.386986,3.3987253,9.0,10,-0.063283965
2.1571496,-3.2578616,-0.6188548,45.0,3,-0.06328166
2.4393601,-3.6868687,-0.5428061,42.0,4,-0.06327705
2.8191745,-4.2625403,-0.44710895,46.0,5,-0.06327245
3.4368396,-5.2003827,-0.32668105,45.0,6,-0.063267834
4.4243665,-6.699721,-0.14014283,42.0,7,-0.06326323
1.5977308,-2.4267707,-0.77852774,40.0,0,-0.063240185
5.5703387,-8.463924,0.17686269,62.0,8,-0.06323788
1.7447237,-2.6520512,-0.73289055,48.0,1,-0.06323558
8.355716,-12.705857,0.79697204,23.0,9,-0.06323328
1.9320066,-2.9378452,-0.6834779,46.0,2,-0.06323097
21.995132,-33.45893,3.5031378,19.0,10,-0.06322867
2.1501036,-3.2719753,-0.6201063,40.0,3,-0.063226365
2.4232068,-3.6903832,-0.5420749,38.0,4,-0.06322175
2.8130252,-4.285681,-0.44850346,48.0,5,-0.06321715
3.4197614,-5.214018,-0.32678574,41.0,6,-0.063212544
4.386703,-6.6933813,-0.13968907,39.0,7,-0.06320793
1.578683,-2.4161606,-0.7733514,40.0,0,-0.063184895
5.5177965,-8.448157,0.17612968,58.0,8,-0.063182585
1.7407824,-2.666284,-0.73514,44.0,1,-0.06318028
8.4062805,-12.880462,0.80607843,25.0,9,-0.06317798
1.9249585,-2.9495034,-0.6846227,42.0,2,-0.06317568
22.107904,-33.887596,3.5399175,9.0,10,-0.06317337
2.1365113,-3.2761512,-0.61948055,45.0,3,-0.06317107
2.415729,-3.7071352,-0.5432936,41.0,4,-0.06316646
2.8002229,-4.2988124,-0.44885206,49.0,5,-0.06316185
3.3960927,-5.217554,-0.32626238,43.0,6,-0.063157246
47.211075,-72.55997,19.985552,40.0,14,-0.06315494
4.343686,-6.678479,-0.13906078,37.0,7,-0.06315263
1.5670866,-2.4167936,-0.77179843,37.0,0,-0.0631296
5.47631,-8.44891,0.17574574,56.0,8,-0.063127294
1.7282859,-2.6674378,-0.73379034,41.0,1,-0.063124985
8.491556,-13.11089,0.81863916,30.0,9,-0.06312268
1.9093148,-2.9479656,-0.6827146,43.0,2,-0.06312038
22.047955,-34.054874,3.5493305,19.0,10,-0.06311808
2.112183,-3.2636886,-0.6157261,40.0,3,-0.063115776
2.4372687,-3.7688863,-0.5510932,60.0,4,-0.06311116
2.7776287,-4.296848,-0.44763187,51.0,5,-0.06310656
3.3908637,-5.249509,-0.32751846,43.0,6,-0.06310195
4.3333616,-6.7137623,-0.13947964,40.0,7,-0.06309734
1.5628225,-2.4287474,-0.773869,35.0,0,-0.0630743
5.5052004,-8.558792,0.17763059,64.0,8,-0.063071996
1.7168564,-2.6701763,-0.73289055,48.0,1,-0.063069694
8.583965,-13.355512,0.8320371,26.0,9,-0.06306739
1.9106894,-2.9727793,-0.6869124,42.0,2,-0.06306508
22.113104,-34.418262,3.5791376,20.0,10,-0.06306278
2.1050477,-3.2776902,-0.61697763,41.0,3,-0.06306048
2.42517,-3.7790413,-0.55133694,56.0,4,-0.063055865
2.767992,-4.314903,-0.44850346,39.0,5,-0.06305126
3.3746738,-5.2646756,-0.32772776,45.0,6,-0.06304665
47.300533,-73.81977,20.241096,42.0,14,-0.06304435
4.344413,-6.782733,-0.1405966,39.0,7,-0.063042045
1.5605729,-2.4439573,-0.7769748,37.0,0,-0.06301901
5.50972,-8.631895,0.17874755,52.0,8,-0.0630167
1.7075253,-2.6761527,-0.73289055,50.0,1,-0.063014396
8.238824,-12.91246,0.80272895,11.0,9,-0.06301209
1.8876324,-2.959568,-0.682333,41.0,2,-0.06300979
22.032461,-34.557404,3.5855873,10.0,10,-0.06300748
2.0978403,-3.291681,-0.6182291,45.0,3,-0.06300518
2.387439,-3.7489727,-0.54573095,46.0,4,-0.063000575
2.7539833,-4.3262196,-0.44867775,37.0,5,-0.06299596
3.3477008,-5.262942,-0.3268904,45.0,6,-0.06299136
4.3476477,-6.8375998,-0.1414343,42.0,7,-0.06298675
1.5634062,-2.46734,-0.7826688,34.0,0,-0.06296371
5.5206666,-8.712618,0.18003903,54.0,8,-0.06296141
1.6986414,-2.6818006,-0.73289055,45.0,1,-0.0629591
8.734321,-13.794996,0.8556929,28.0,9,-0.062956795
1.8783398,-2.967798,-0.6827146,43.0,2,-0.06295449
21.820087,-34.4893,3.5705965,10.0,10,-0.06295219
2.0964181,-3.313644,-0.62104493,39.0,3,-0.06294988
47.71353,-75.44618,10.960686,63.0,11,-0.06294758
2.384541,-3.7719705,-0.54792464,45.0,4,-0.06294528
2.7452495,-4.345913,-0.44972363,42.0,5,-0.062940665
3.3248978,-5.2655706,-0.32636705,45.0,6,-0.06293606
4.3344245,-6.869647,-0.14178336,36.0,7,-0.062931456
1.5490444,-2.4626992,-0.779563,32.0,0,-0.06290841
5.4348702,-8.6438055,0.17822398,67.0,8,-0.06290611
1.6965287,-2.6992629,-0.7360398,40.0,1,-0.06290381
8.5437355,-13.598784,0.84166694,21.0,9,-0.0629015
1.840288,-2.929126,-0.67241096,39.0,2,-0.062899195
22.07011,-35.14188,3.6305594,10.0,10,-0.06289689
2.0921905,-3.3326526,-0.623235,37.0,3,-0.06289459
45.55902,-72.59915,10.523906,63.0,11,-0.06289228
2.3829632,-3.7987685,-0.5506057,41.0,4,-0.06288998
2.7466998,-4.3803124,-0.45233828,43.0,5,-0.062885374
3.3234644,-5.3042245,-0.3280418,41.0,6,-0.06288076
4.3167863,-6.894904,-0.14199278,42.0,7,-0.06287616
1.5414616,-2.4697304,-0.7800806,31.0,0,-0.06285311
5.459708,-8.750946,0.18003903,71.0,8,-0.06285081
1.6943151,-2.7167432,-0.7391892,37.0,1,-0.06284851
8.699087,-13.953941,0.86176395,30.0,9,-0.062846206
1.8508252,-2.9688525,-0.6800433,38.0,2,-0.062843904
22.069538,-35.414852,3.6507795,10.0,10,-0.062841594
2.0711446,-3.3248456,-0.62041914,39.0,3,-0.06283929
2.3843744,-3.8306575,-0.5540181,42.0,4,-0.06283469
44.323643,-71.23662,13.288484,63.0,12,-0.06283238
2.756654,-4.4304733,-0.45652178,36.0,5,-0.062830076
3.3070383,-5.3191853,-0.32825115,41.0,6,-0.06282547
4.2990236,-6.9201226,-0.14220221,39.0,7,-0.06282086
1.533848,-2.4767382,-0.7805982,27.0,0,-0.06279782
5.4196544,-8.754648,0.17972489,60.0,8,-0.06279552
1.6796942,-2.7143555,-0.73693967,43.0,1,-0.06279321
8.769052,-14.176157,0.8735919,23.0,9,-0.06279091
1.8456144,-2.983643,-0.6819514,37.0,2,-0.062788606
22.260134,-36.000057,3.7030733,11.0,10,-0.0627863
2.055372,-3.3253336,-0.6191677,39.0,3,-0.062783994
2.3835056,-3.8592248,-0.55694294,48.0,4,-0.06277939
2.7641985,-4.4773655,-0.46035662,39.0,5,-0.06277478
3.290548,-5.334097,-0.3284605,41.0,6,-0.06277017
4.2937284,-6.965727,-0.14283049,39.0,7,-0.06276556
1.5282273,-2.4870152,-0.78215116,29.0,0,-0.062742524
5.4916306,-8.940497,0.18314555,45.0,8,-0.06274022
1.6681695,-2.7168806,-0.7360398,44.0,1,-0.06273792
8.663098,-14.114762,0.86793965,26.0,9,-0.06273561
1.844431,-3.0051267,-0.68538594,39.0,2,-0.06273331
22.363558,-36.451153,3.7414217,11.0,10,-0.062731005
2.0633738,-3.3644826,-0.62511224,36.0,3,-0.0627287
2.3731315,-3.8725994,-0.55767417,52.0,4,-0.06272409
2.769367,-4.5209665,-0.46384284,45.0,5,-0.06271949
3.2729511,-5.3472533,-0.32856518,43.0,6,-0.062714875
55.535213,-90.76739,24.566456,22.0,14,-0.06271257
4.296514,-7.0250273,-0.14373802,36.0,7,-0.06271027
1.5346218,-2.5170763,-0.78991574,26.0,0,-0.062687226
5.575903,-9.149153,0.18701999,47.0,8,-0.06268492
1.663745,-2.7310083,-0.73828936,37.0,1,-0.06268262
8.814264,-14.474146,0.8881413,33.0,9,-0.06268032
1.8451622,-3.0299914,-0.6895837,36.0,2,-0.06267801
22.356356,-36.726414,3.761642,11.0,10,-0.06267571
2.0567508,-3.3801022,-0.6266765,46.0,3,-0.062673405
2.3554745,-3.8740747,-0.5566992,52.0,4,-0.06266879
2.7701259,-4.557848,-0.46663183,42.0,5,-0.06266419
3.26256,-5.3723025,-0.32940254,40.0,6,-0.06265958
4.2615924,-7.0228868,-0.14338897,39.0,7,-0.06265497
1.5258262,-2.5224178,-0.78991574,28.0,0,-0.062631935
5.385623,-8.906749,0.18167956,33.0,8,-0.062629625
1.6562182,-2.7401347,-0.7391892,39.0,1,-0.06262732
8.752326,-14.486018,0.88698983,23.0,9,-0.06262502
1.8396509,-3.0448153,-0.69149184,39.0,2,-0.06262272
22.281582,-36.892914,3.7707062,11.0,10,-0.06262041
2.0510654,-3.3974073,-0.62855375,45.0,3,-0.06261811
50.14774,-83.09807,11.917116,63.0,11,-0.062615804
2.345013,-3.8873725,-0.55743045,48.0,4,-0.0626135
2.741853,-4.5470157,-0.46454012,40.0,5,-0.06260889
3.2973864,-5.4726157,-0.33484548,40.0,6,-0.062604286
4.276246,-7.10282,-0.14471537,39.0,7,-0.062599674
1.5110472,-2.51779,-0.7868099,34.0,0,-0.06257664
5.4203386,-9.035239,0.18391345,50.0,8,-0.062574334
1.6516544,-2.7542558,-0.7414387,33.0,1,-0.062572025
8.730459,-14.564448,0.8899207,18.0,9,-0.06256972
1.8350674,-3.0613217,-0.69378155,39.0,2,-0.06256742
23.264807,-38.826504,3.9600081,13.0,10,-0.06256512
2.0402086,-3.4062407,-0.6288666,56.0,3,-0.06256281
2.3334677,-3.8989406,-0.5579179,46.0,4,-0.062558204
2.7300558,-4.5633974,-0.46523735,48.0,5,-0.0625536
3.2946596,-5.511522,-0.33652022,40.0,6,-0.06254899
54.30977,-90.888954,24.44408,22.0,14,-0.062546685
4.2596297,-7.1314373,-0.1449946,36.0,7,-0.06254438
1.5101559,-2.5363286,-0.7909511,34.0,0,-0.06252134
5.5575175,-9.337638,0.18967277,47.0,8,-0.062519036
1.6500012,-2.7734025,-0.7450379,32.0,1,-0.062516734
8.638731,-14.526171,0.88573384,20.0,9,-0.06251443
1.8313946,-3.0795205,-0.69645286,43.0,2,-0.06251212
23.300177,-39.1952,3.9892926,13.0,10,-0.06250982
2.0414248,-3.4354181,-0.6329339,51.0,3,-0.06250752
2.3076825,-3.8865798,-0.55499303,37.0,4,-0.062502906
2.7181778,-4.579753,-0.46593457,48.0,5,-0.0624983
3.2998514,-5.5642176,-0.33903235,42.0,6,-0.062493693
4.2693706,-7.2047544,-0.14618136,36.0,7,-0.062489085
1.5012932,-2.5415847,-0.7909511,28.0,0,-0.062466044
5.529972,-9.365589,0.18984728,33.0,8,-0.06246374
1.6403103,-2.7791448,-0.7450379,32.0,1,-0.062461436
8.669164,-14.693851,0.8941076,17.0,9,-0.062459134
1.8146484,-3.0757492,-0.6941632,47.0,2,-0.062456828
23.159168,-39.269432,3.9885955,13.0,10,-0.062454525
2.033433,-3.44933,-0.63418543,46.0,3,-0.06245222
2.3061914,-3.915136,-0.5579179,41.0,4,-0.06244761
2.7021747,-4.5892134,-0.46593457,45.0,5,-0.062443003
3.272307,-5.5619307,-0.338195,40.0,6,-0.062438395
50.90983,-86.56586,23.185257,22.0,14,-0.062436093
4.2614236,-7.24892,-0.14677474,42.0,7,-0.062433787
1.4992495,-2.5584767,-0.7945745,35.0,0,-0.06241075
5.461872,-9.324444,0.18862562,50.0,8,-0.062408444
1.6345378,-2.7915804,-0.7468375,28.0,1,-0.06240614
8.538117,-14.587849,0.88583845,13.0,9,-0.062403835
1.7989423,-3.0735931,-0.6922551,42.0,2,-0.062401533
24.164898,-41.303608,4.186613,14.0,10,-0.062399227
2.0393302,-3.4871004,-0.63981706,46.0,3,-0.062396925
2.2915099,-3.9214492,-0.55767417,49.0,4,-0.062392317
2.6871436,-4.600338,-0.4661089,37.0,5,-0.06238771
3.2468314,-5.56297,-0.33756694,42.0,6,-0.0623831
4.2491903,-7.286207,-0.14722851,36.0,7,-0.062378492
1.4878434,-2.5584245,-0.79302156,34.0,0,-0.06236458
5.5263944,-9.5067425,0.19194156,52.0,8,-0.062362276
1.6389786,-2.8205743,-0.7531361,38.0,1,-0.06235997
8.549886,-14.719706,0.8921188,12.0,9,-0.062357668
1.7887403,-3.0795417,-0.6922551,42.0,2,-0.062355362
2.0297387,-3.4972606,-0.6404428,46.0,3,-0.062350754
2.2864597,-3.9427638,-0.5596241,52.0,4,-0.062346146
2.6620786,-4.594175,-0.46454012,39.0,5,-0.062341537
3.230368,-5.5771627,-0.3377763,40.0,6,-0.06233693
42.570454,-73.52659,19.614832,36.0,14,-0.062334627
4.2059736,-7.267374,-0.14656532,33.0,7,-0.06233232
1.4794214,-2.565534,-0.7935392,29.0,0,-0.062309284
5.5481176,-9.621252,0.19386134,45.0,8,-0.062306978
1.6271764,-2.8229017,-0.7522363,43.0,1,-0.062304676
8.745739,-15.1786375,0.91807747,20.0,9,-0.06230237
1.7833201,-3.0962844,-0.6945448,42.0,2,-0.062300067
2.033657,-3.5337825,-0.64576155,41.0,3,-0.06229546
2.279612,-3.9627666,-0.56133026,46.0,4,-0.06229085
2.6678696,-4.641441,-0.46837494,36.0,5,-0.062286243
3.2248254,-5.6149445,-0.33934638,38.0,6,-0.062281635
42.382175,-73.82408,19.652624,37.0,14,-0.06227933
4.210448,-7.3340373,-0.14761245,34.0,7,-0.062277026
1.4694976,-2.5690057,-0.79302156,27.0,0,-0.062253986
5.4304323,-9.4974375,0.19096424,47.0,8,-0.062251683
1.6032811,-2.8051603,-0.7459377,34.0,1,-0.062249377
8.5800705,-15.018094,0.9064589,6.0,9,-0.062247075
1.774449,-3.1059,-0.695308,41.0,2,-0.06224477
2.011516,-3.5237045,-0.6426329,38.0,3,-0.06224016
48.690838,-85.329506,12.062872,63.0,11,-0.06223786
2.2699902,-3.979716,-0.56254894,45.0,4,-0.062235553
2.6467175,-4.6420717,-0.4675034,37.0,5,-0.062230945
3.2210248,-5.653933,-0.34102112,38.0,6,-0.062226336
41.989216,-73.7345,19.589638,36.0,14,-0.062224034
4.2379484,-7.4450035,-0.14953223,40.0,7,-0.062221732
1.4652878,-2.582521,-0.7956098,31.0,0,-0.06219869
5.3666654,-9.462413,0.18988217,35.0,8,-0.062196385
1.5829079,-2.7920916,-0.7409888,39.0,1,-0.062194083
8.975638,-15.838579,0.95408463,31.0,9,-0.062191777
1.7684363,-3.1206155,-0.69721615,41.0,2,-0.062189475
2.0030968,-3.53758,-0.64388436,38.0,3,-0.062184867
2.2687922,-4.010076,-0.5657175,42.0,4,-0.06218026
2.631478,-4.653016,-0.4676777,37.0,5,-0.06217565
3.2199383,-5.6981807,-0.3430099,40.0,6,-0.062171042
41.683662,-73.79577,19.567142,36.0,14,-0.06216874
4.215868,-7.466716,-0.14967184,37.0,7,-0.062166434
1.4553168,-2.5859358,-0.7950921,28.0,0,-0.062143393
5.2071257,-9.256262,0.18537946,31.0,8,-0.06214109
1.5769725,-2.8043945,-0.7427884,45.0,1,-0.062138785
1.7613803,-3.133615,-0.69874257,42.0,2,-0.062134176
2.0023441,-3.565219,-0.6476388,40.0,3,-0.062129572
2.2567236,-4.0214334,-0.566205,35.0,4,-0.062124964
2.6191187,-4.669124,-0.46837494,46.0,5,-0.062120356
3.2303,-5.7633953,-0.3462547,44.0,6,-0.062115747
41.37819,-73.85583,19.544647,36.0,14,-0.06211344
4.178053,-7.460449,-0.14925298,37.0,7,-0.06211114
1.447223,-2.5926874,-0.7956098,35.0,0,-0.0620881
5.3511405,-9.590454,0.19169722,49.0,8,-0.062085792
1.5624275,-2.8013723,-0.74053884,43.0,1,-0.06208349
8.9757185,-16.099722,0.9660171,23.0,9,-0.062081188
1.7399155,-3.1208816,-0.6945448,47.0,2,-0.062078882
2.001423,-3.5928946,-0.6513932,35.0,3,-0.062074274
41.138847,-73.88158,10.383025,63.0,11,-0.06207197
2.2397764,-4.024083,-0.5654738,38.0,4,-0.062069666
2.603773,-4.6799793,-0.46854928,51.0,5,-0.062065057
3.2286003,-5.807804,-0.34824347,46.0,6,-0.06206045
41.275364,-74.279175,19.618431,36.0,14,-0.062058147
4.1714053,-7.5099506,-0.14995107,37.0,7,-0.06205584
1.4334854,-2.5892727,-0.79302156,38.0,0,-0.062032804
5.32925,-9.630071,0.1921161,43.0,8,-0.062030498
1.5601856,-2.820451,-0.74413806,47.0,1,-0.062028196
9.011222,-16.290184,0.975647,13.0,9,-0.06202589
1.7347108,-3.1372447,-0.6968345,49.0,2,-0.062023588
1.9659424,-3.558362,-0.64388436,36.0,3,-0.06201898
2.2410657,-4.059683,-0.56937367,42.0,4,-0.06201437
2.59801,-4.7082286,-0.4704667,42.0,5,-0.062009763
3.2073438,-5.817289,-0.3481388,46.0,6,-0.062005155
41.51999,-75.3376,19.85958,39.0,14,-0.06200285
4.2063203,-7.6323256,-0.15211518,37.0,7,-0.062000547
1.4337362,-2.6111944,-0.798198,41.0,0,-0.061977506
5.3762064,-9.791425,0.1949783,37.0,8,-0.061975203
1.5433233,-2.8119423,-0.74053884,44.0,1,-0.061972897
9.251147,-16.862616,1.0079906,28.0,9,-0.061970595
1.7313013,-3.157052,-0.69988745,43.0,2,-0.06196829
1.9721726,-3.5977736,-0.64982885,43.0,3,-0.06196368
2.2304516,-4.0723157,-0.57010484,45.0,4,-0.061959073
2.5978196,-4.74698,-0.47342998,37.0,5,-0.061954465
3.196662,-5.8436637,-0.34908086,46.0,6,-0.061949857
41.223194,-75.38937,19.837084,38.0,14,-0.061947554
4.1700616,-7.6294146,-0.15176612,37.0,7,-0.061945252
1.4278421,-2.621024,-0.79975086,48.0,0,-0.06192221
5.318088,-9.766226,0.19410567,48.0,8,-0.061919905
1.531635,-2.8138893,-0.73963904,40.0,1,-0.061917603
9.234231,-16.972,1.0125962,25.0,9,-0.061915297
1.7255143,-3.1713984,-0.7017955,41.0,2,-0.061912995
1.9586592,-3.6029005,-0.649516,42.0,3,-0.061908387
2.229488,-4.1044974,-0.5735172,45.0,4,-0.06190378
2.6077318,-4.802845,-0.4781364,34.0,5,-0.06189917
3.1629102,-5.8302083,-0.34761545,44.0,6,-0.061894562
40.749832,-75.14565,19.735405,38.0,14,-0.06189226
4.1577005,-7.6702952,-0.1522897,37.0,7,-0.061889954
1.4232755,-2.6344905,-0.8023391,46.0,0,-0.061866913
5.288716,-9.793528,0.19428019,40.0,8,-0.06186461
1.5218033,-2.8192186,-0.73963904,47.0,1,-0.061862305
9.005166,-16.689499,0.99385995,13.0,9,-0.061860003
1.7088399,-3.1670356,-0.6995058,42.0,2,-0.061857697
28.432428,-52.71654,5.240152,23.0,10,-0.061855394
1.9591943,-3.6340585,-0.65389615,38.0,3,-0.06185309
2.2189128,-4.119245,-0.57449216,58.0,4,-0.061848484
2.5758386,-4.78385,-0.47534743,33.0,5,-0.061843876
3.1529489,-5.860561,-0.34876686,44.0,6,-0.061839268
40.64972,-75.58951,19.814589,38.0,14,-0.06183696
4.1441555,-7.7094207,-0.15277837,34.0,7,-0.06183466
1.4085968,-2.6292253,-0.7992332,45.0,0,-0.06181162
5.2327847,-9.771384,0.19347738,42.0,8,-0.061809313
1.5193105,-2.8382583,-0.7432383,43.0,1,-0.06180701
9.098558,-17.004354,1.010712,4.0,9,-0.061804704
1.6922171,-3.1625953,-0.69721615,42.0,2,-0.061802402
28.718071,-53.693913,5.3273077,25.0,10,-0.0618001
1.946497,-3.640875,-0.65389615,42.0,3,-0.061797794
2.2110677,-4.139222,-0.5761983,64.0,4,-0.061793186
2.561939,-4.7980847,-0.47587034,37.0,5,-0.061788578
3.1512754,-5.9067745,-0.3508603,40.0,6,-0.06178397
39.468636,-74.01143,19.364687,34.0,14,-0.061781667
4.1322694,-7.7520733,-0.15333684,34.0,7,-0.06177936
1.3939724,-2.6238902,-0.79612744,50.0,0,-0.061756324
5.340263,-10.056273,0.198748,26.0,8,-0.061754018
1.5157899,-2.855593,-0.7463876,48.0,1,-0.061751716
8.991405,-16.946032,1.0053738,1.0,9,-0.06174941
1.6793267,-3.165014,-0.69645286,41.0,2,-0.061747108
1.9272991,-3.6354303,-0.6517061,46.0,3,-0.0617425
2.199393,-4.152178,-0.5769295,58.0,4,-0.06173789
2.5778053,-4.8686266,-0.48197123,40.0,5,-0.061733283
3.1465147,-5.9477506,-0.3526397,42.0,6,-0.061728675
4.1192007,-7.7929688,-0.1538604,37.0,7,-0.061724067
1.3830041,-2.6253211,-0.7950921,50.0,0,-0.061701026
5.2930164,-10.051852,0.19829424,52.0,8,-0.061698724
1.502182,-2.853969,-0.744588,56.0,1,-0.061696418
9.038211,-17.178816,1.0173064,16.0,9,-0.061694115
1.6691825,-3.1725945,-0.6968345,46.0,2,-0.06169181
1.9155165,-3.6438847,-0.6520189,42.0,3,-0.0616872
2.1885781,-4.1668596,-0.57790446,58.0,4,-0.061682593
2.5746872,-4.9040565,-0.48458594,39.0,5,-0.061677985
3.1359394,-5.978153,-0.3537911,44.0,6,-0.061673377
38.623386,-73.66039,19.20182,33.0,14,-0.061671074
4.075265,-7.7754197,-0.15323213,37.0,7,-0.06166877
1.3809869,-2.6438317,-0.7992332,52.0,0,-0.06164573
5.3162045,-10.181942,0.20049325,52.0,8,-0.061643425
1.4840958,-2.8436465,-0.74053884,50.0,1,-0.061641123
9.438234,-18.092112,1.0694331,17.0,9,-0.061638817
1.6807995,-3.2219174,-0.70637494,38.0,2,-0.061636515
1.8927423,-3.6312802,-0.6485774,43.0,3,-0.061631907
2.1703522,-4.167431,-0.5769295,52.0,4,-0.0616273
2.5547931,-4.9077125,-0.484063,37.0,5,-0.06162269
3.1030715,-5.9660287,-0.35243034,36.0,6,-0.061618082
4.0305786,-7.755884,-0.15256894,37.0,7,-0.061613474
1.3708614,-2.646921,-0.79871565,48.0,0,-0.061590433
5.2254705,-10.093886,0.19839896,37.0,8,-0.06158813
