x,y,z,intensity,ring,time
2.4126096,-3.5527143,-0.6801771,51.0,3,-0.048152503
2.7765708,-4.0917416,-0.6071531,52.0,4,-0.048147894
3.3061402,-4.8739805,-0.51526475,37.0,5,-0.048143286
4.1787443,-6.1650233,-0.39032158,52.0,6,-0.048138678
5.2817764,-7.7982187,-0.16440167,37.0,7,-0.04813407
1.7427595,-2.580831,-0.83443266,34.0,0,-0.048111033
6.963375,-10.315858,0.21724756,1.0,8,-0.048108727
1.9173166,-2.8414683,-0.7913778,41.0,1,-0.048106425
17.11354,-25.371866,1.6038879,7.0,9,-0.04810412
2.134197,-3.164077,-0.7418654,38.0,2,-0.048101816
2.3935697,-3.5512862,-0.67829996,46.0,3,-0.04809721
2.7567263,-4.0931754,-0.60593444,42.0,4,-0.0480926
3.2835433,-4.8772283,-0.5143932,40.0,5,-0.04808799
4.1895285,-6.22763,-0.39335707,47.0,6,-0.048083384
5.2779512,-7.85146,-0.16513468,43.0,7,-0.048078775
1.7423443,-2.599737,-0.83857375,27.0,0,-0.048055734
7.6574526,-11.429933,0.2401451,39.0,8,-0.048053432
1.9084706,-2.8497634,-0.79182774,44.0,1,-0.048051126
2.141706,-3.199242,-0.74835294,30.0,2,-0.048046518
2.3822572,-3.5612617,-0.6786128,38.0,3,-0.04804191
2.7766194,-4.1539345,-0.61349034,50.0,4,-0.0480373
3.2510014,-4.865467,-0.5119528,39.0,5,-0.048032694
4.206581,-6.300353,-0.3970206,50.0,6,-0.04802809
5.2638307,-7.8897963,-0.16555353,43.0,7,-0.04802348
1.7343285,-2.6074114,-0.83909136,37.0,0,-0.04800044
1.8931179,-2.8482928,-0.7895782,41.0,1,-0.04799583
17.817999,-26.818243,1.6874161,15.0,9,-0.047993526
2.1337848,-3.2116039,-0.7494978,38.0,2,-0.047991224
2.3719962,-3.5728464,-0.6792385,42.0,3,-0.047986615
2.7533233,-4.1503677,-0.6115404,56.0,4,-0.047982007
3.2406049,-4.8867483,-0.5129987,39.0,5,-0.0479774
4.134918,-6.240077,-0.39231035,40.0,6,-0.04797279
5.2748976,-7.9664793,-0.1667752,33.0,7,-0.047968183
1.7273451,-2.616674,-0.84012663,37.0,0,-0.04794514
7.788935,-11.803572,0.24684684,50.0,8,-0.04794284
1.8777989,-2.8467503,-0.7873287,44.0,1,-0.047940537
18.092596,-27.43886,1.7224813,19.0,9,-0.04793823
2.1214805,-3.2173939,-0.7491161,43.0,2,-0.04793593
2.3605974,-3.5827546,-0.6795514,32.0,3,-0.04793132
2.7420938,-4.1649275,-0.6122716,53.0,4,-0.047926713
3.2487195,-4.9363093,-0.5170078,39.0,5,-0.047922105
4.125182,-6.2728286,-0.39346173,47.0,6,-0.047917496
5.2964754,-8.060047,-0.16834593,27.0,7,-0.04791289
1.7118486,-2.612992,-0.8370208,31.0,0,-0.047889847
1.8763893,-2.866331,-0.79092795,43.0,1,-0.04788524
18.30073,-27.96645,1.75158,32.0,9,-0.047882937
2.1113114,-3.2264223,-0.7494978,41.0,2,-0.04788063
2.3621306,-3.6124654,-0.6836187,31.0,3,-0.047876023
2.7449114,-4.201063,-0.6161715,53.0,4,-0.047871415
3.2183952,-4.927603,-0.5149161,37.0,5,-0.047866806
4.10326,-6.2871904,-0.39346173,42.0,6,-0.0478622
5.289062,-8.11031,-0.1690091,40.0,7,-0.04785759
1.6974524,-2.6108532,-0.83443266,40.0,0,-0.047834553
7.0220113,-10.80469,0.22492662,4.0,8,-0.047832247
1.8621259,-2.8663268,-0.7891283,40.0,1,-0.047829945
18.419466,-28.363495,1.7724097,28.0,9,-0.04782764
2.0957592,-3.2271864,-0.7479713,39.0,2,-0.047825336
2.3667111,-3.647202,-0.6886246,35.0,3,-0.04782073
2.7572308,-4.252259,-0.6222649,63.0,4,-0.04781612
3.2033422,-4.9421506,-0.51526475,37.0,5,-0.047811512
4.138833,-6.390323,-0.39900938,55.0,6,-0.047806904
5.2216063,-8.068286,-0.16775253,33.0,7,-0.047802296
1.6967072,-2.629749,-0.83857375,41.0,0,-0.04774356
6.930062,-10.745111,0.22318138,1.0,8,-0.047741257
1.8457736,-2.862982,-0.78642887,44.0,1,-0.04773895
18.551886,-28.786884,1.7948095,16.0,9,-0.04773665
2.0919266,-3.2460341,-0.75064266,46.0,2,-0.047734343
2.3785641,-3.6936398,-0.6958206,42.0,3,-0.047729734
2.7477415,-4.2702036,-0.6234836,66.0,4,-0.047725126
3.204394,-4.981788,-0.518228,39.0,5,-0.047720518
4.117582,-6.406411,-0.39911404,47.0,6,-0.04771591
5.1966524,-8.091511,-0.16785724,27.0,7,-0.0477113
1.6958507,-2.648671,-0.84271485,44.0,0,-0.047688264
7.689129,-12.013912,0.24897604,42.0,8,-0.04768596
1.828417,-2.8579168,-0.78327954,45.0,1,-0.047683656
18.877409,-29.517776,1.8362596,25.0,9,-0.04768135
2.0774097,-3.2483544,-0.7494978,42.0,2,-0.047679048
2.3709748,-3.7102425,-0.69738495,42.0,3,-0.04767444
2.721067,-4.2613654,-0.6208025,50.0,4,-0.04766983
3.2137845,-5.0349293,-0.5225858,40.0,5,-0.047665223
4.080158,-6.3971705,-0.39764863,47.0,6,-0.047660615
5.2801485,-8.284981,-0.17148735,42.0,7,-0.047656007
1.6824508,-2.6480525,-0.8406443,46.0,0,-0.047632966
7.613911,-11.988351,0.24789397,50.0,8,-0.047630664
1.8152966,-2.8593462,-0.78192985,44.0,1,-0.047628358
18.71733,-29.482414,1.8301885,17.0,9,-0.047626056
2.0618503,-3.2489555,-0.7479713,38.0,2,-0.04762375
2.3516617,-3.7084866,-0.6955077,44.0,3,-0.04761914
2.6984189,-4.256952,-0.61885256,50.0,4,-0.047614533
3.236702,-5.1100774,-0.5292097,45.0,5,-0.047609925
4.081301,-6.448502,-0.3999514,47.0,6,-0.047605317
5.2323318,-8.270337,-0.17082416,38.0,7,-0.047600713
1.6664461,-2.6421793,-0.8370208,47.0,0,-0.04757767
7.7010245,-12.21483,0.25204766,31.0,8,-0.047575366
1.8047657,-2.8637018,-0.78147995,45.0,1,-0.047573064
18.306385,-29.047554,1.799415,4.0,9,-0.047570758
2.0385072,-3.235842,-0.7433919,39.0,2,-0.047568455
2.3603978,-3.749699,-0.70176506,41.0,3,-0.047563847
48.669228,-77.345276,11.220511,63.0,11,-0.04756154
2.6842873,-4.265877,-0.61885256,55.0,4,-0.04755924
3.2070115,-5.100542,-0.5271179,42.0,5,-0.04755463
4.016331,-6.392663,-0.39565986,45.0,6,-0.047550023
5.201687,-8.282562,-0.17071944,28.0,7,-0.047545414
1.6525497,-2.6395035,-0.83443266,50.0,0,-0.047522373
7.697606,-12.29963,0.25326934,38.0,8,-0.04752007
1.803528,-2.8828874,-0.7850792,50.0,1,-0.047517765
18.643295,-29.812347,1.8427492,12.0,9,-0.047515463
2.042339,-3.2658882,-0.74873453,42.0,2,-0.047513157
2.3489976,-3.7591817,-0.702078,37.0,3,-0.047508553
2.674637,-4.2836404,-0.6200713,52.0,4,-0.047503944
3.1891885,-5.1117053,-0.5271179,40.0,5,-0.047499336
4.0109644,-6.4313664,-0.39722994,37.0,6,-0.047494728
5.148418,-8.261635,-0.16991663,33.0,7,-0.04749012
1.640826,-2.6422606,-0.8333974,52.0,0,-0.04746708
7.7959876,-12.554062,0.25794658,29.0,8,-0.047464773
1.7944814,-2.890821,-0.7855291,44.0,1,-0.04746247
19.120405,-30.81404,1.9005282,13.0,9,-0.04746017
2.0241458,-3.2633414,-0.7464448,42.0,2,-0.047457863
2.3466504,-3.7862353,-0.7055195,39.0,3,-0.047453254
2.666986,-4.304763,-0.6217774,56.0,4,-0.047448646
3.1912515,-5.154994,-0.53042984,43.0,5,-0.047444038
4.0073285,-6.4782963,-0.3992187,30.0,6,-0.04743943
5.0932565,-8.237037,-0.16904402,33.0,7,-0.04743482
1.632606,-2.6496167,-0.833915,54.0,0,-0.047411785
7.7981625,-12.660872,0.25955218,26.0,8,-0.04740948
1.7818305,-2.89406,-0.7846293,43.0,1,-0.047407176
19.360376,-31.445238,1.9352791,18.0,9,-0.04740487
2.0148008,-3.273731,-0.74720806,39.0,2,-0.04740257
2.3375587,-3.801134,-0.70677096,45.0,3,-0.04739796
2.6563869,-4.3229656,-0.62299615,53.0,4,-0.04739335
3.1701093,-5.161009,-0.5299069,39.0,5,-0.047388744
3.931408,-6.4054327,-0.39388046,27.0,6,-0.047384135
5.024736,-8.189994,-0.16771764,33.0,7,-0.047379527
1.6304007,-2.6668367,-0.8375384,50.0,0,-0.047356486
7.828105,-12.804385,0.26196063,43.0,8,-0.047354184
1.7681589,-2.8933015,-0.7828297,43.0,1,-0.047351878
19.383766,-31.730791,1.9486772,13.0,9,-0.047349576
2.002338,-3.2790687,-0.74682647,37.0,2,-0.04734727
45.983723,-75.33343,7.7216496,63.0,10,-0.047344968
2.2889197,-3.749852,-0.6958206,35.0,3,-0.04734266
2.649273,-4.3436136,-0.62470233,55.0,4,-0.047338054
3.176959,-5.212875,-0.5340904,40.0,5,-0.047333445
3.8509161,-6.3212113,-0.38791415,21.0,6,-0.047328837
5.07306,-8.333885,-0.17030059,23.0,7,-0.047324233
1.6105242,-2.6540618,-0.83184445,44.0,0,-0.04730119
7.492976,-12.352904,0.25218728,14.0,8,-0.047298886
1.759059,-2.901122,-0.78327954,39.0,1,-0.047296584
19.45551,-32.086933,1.966576,18.0,9,-0.047294278
1.9914529,-3.2856905,-0.74682647,33.0,2,-0.047291975
45.673775,-75.386665,7.7115397,6.0,10,-0.04728967
2.3157246,-3.823716,-0.7080224,35.0,3,-0.047287367
2.632039,-4.349438,-0.6242148,50.0,4,-0.04728276
3.1390314,-5.189286,-0.5306041,53.0,5,-0.04727815
4.001363,-6.620065,-0.40539435,34.0,6,-0.047273543
5.0319533,-8.328411,-0.16984682,27.0,7,-0.047268935
1.5982609,-2.6547022,-0.8302915,46.0,0,-0.047245894
7.3993697,-12.290311,0.25040713,21.0,8,-0.04724359
1.7474194,-2.9036,-0.78237975,45.0,1,-0.047241285
19.476206,-32.37543,1.9800788,14.0,9,-0.047238983
1.9658071,-3.2690673,-0.7414838,46.0,2,-0.047236677
2.296926,-3.8212159,-0.7061453,35.0,3,-0.04723207
2.6339548,-4.3853703,-0.62811464,48.0,4,-0.047227465
3.1198726,-5.1985035,-0.53042984,53.0,5,-0.047222856
3.9814432,-6.636724,-0.4056037,31.0,6,-0.04721825
5.1426754,-8.5791855,-0.17459388,31.0,7,-0.04721364
1.5874667,-2.656671,-0.8292563,45.0,0,-0.0471906
7.5010095,-12.558129,0.2553287,24.0,8,-0.047188293
1.739271,-2.9130282,-0.78327954,41.0,1,-0.04718599
19.678335,-32.971443,2.0123177,19.0,9,-0.047183685
1.9619989,-3.2873688,-0.7441551,39.0,2,-0.047181383
2.2714324,-3.808851,-0.70239085,35.0,3,-0.047176775
2.6196468,-4.396243,-0.62835836,42.0,4,-0.047172166
3.1281068,-5.251614,-0.5347876,55.0,5,-0.04716756
3.9173925,-6.58193,-0.40141684,35.0,6,-0.04716295
5.1321173,-8.629741,-0.17525707,38.0,7,-0.04715834
1.5831091,-2.670505,-0.83184445,47.0,0,-0.047135305
7.5600896,-12.75799,0.2588541,28.0,8,-0.047133
1.7251196,-2.9123752,-0.78147995,45.0,1,-0.047130696
19.807343,-33.452396,2.0374389,14.0,9,-0.04712839
1.954513,-3.300955,-0.7456816,32.0,2,-0.04712609
2.2661698,-3.8303573,-0.70489377,35.0,3,-0.04712148
2.6164074,-4.425867,-0.6312833,40.0,4,-0.047116872
3.1188788,-5.2779393,-0.53635645,47.0,5,-0.047112264
3.8872848,-6.5835257,-0.40068412,32.0,6,-0.047107656
5.0978985,-8.640714,-0.17511745,42.0,7,-0.047103047
1.5835713,-2.692667,-0.8370208,44.0,0,-0.047080006
7.520576,-12.792921,0.2590286,15.0,8,-0.047077704
1.71593,-2.9200594,-0.78192985,40.0,1,-0.0470754
19.769354,-33.655663,2.0456035,19.0,9,-0.047073096
1.9549106,-3.328071,-0.750261,33.0,2,-0.04707079
2.2437863,-3.8229125,-0.702078,33.0,3,-0.047066182
2.6009429,-4.4349723,-0.6312833,40.0,4,-0.047061574
3.1286497,-5.3369207,-0.5412372,39.0,5,-0.047056966
3.9036505,-6.6642656,-0.40476632,44.0,6,-0.047052357
5.067705,-8.658457,-0.17511745,35.0,7,-0.04704775
1.5624802,-2.6781545,-0.8308091,41.0,0,-0.047024712
7.610865,-13.050568,0.26370585,15.0,8,-0.047022406
1.7125969,-2.9378161,-0.7850792,37.0,1,-0.047020104
19.312878,-33.14292,2.010329,9.0,9,-0.047017798
1.9413048,-3.3314822,-0.7494978,37.0,2,-0.047015496
2.237386,-3.8426704,-0.70426804,37.0,3,-0.047010887
2.5964265,-4.4628987,-0.63396436,42.0,4,-0.04700628
3.0839593,-5.303029,-0.5367051,39.0,5,-0.04700167
3.8944125,-6.702028,-0.40623173,34.0,6,-0.046997063
5.0414677,-8.68301,-0.17525707,35.0,7,-0.046992455
1.5444131,-2.6685443,-0.8261504,45.0,0,-0.046969414
7.890707,-13.639602,0.27504992,24.0,8,-0.04696711
1.7042826,-2.9471502,-0.785979,45.0,1,-0.046964806
19.510925,-33.753086,2.043196,9.0,9,-0.046962503
1.9276992,-3.334839,-0.74873453,36.0,2,-0.046960197
2.216055,-3.8367724,-0.70176506,35.0,3,-0.04695559
2.5788476,-4.4684963,-0.6334769,48.0,4,-0.04695098
3.0485039,-5.284423,-0.5337417,39.0,5,-0.046946377
3.9118881,-6.786526,-0.41052327,34.0,6,-0.04694177
5.060031,-8.785464,-0.1769674,31.0,7,-0.04693716
1.5427834,-2.6873221,-0.8302915,40.0,0,-0.04691412
7.400134,-12.895255,0.25951728,8.0,8,-0.046911813
1.6910757,-2.9480104,-0.7846293,40.0,1,-0.04690951
19.62447,-34.22469,2.0675845,15.0,9,-0.046907205
1.9179996,-3.3449538,-0.7494978,43.0,2,-0.046904903
2.2085404,-3.8547688,-0.7036423,35.0,3,-0.046900295
2.5543582,-4.461966,-0.6312833,45.0,4,-0.046895687
3.0547788,-5.3382635,-0.5380995,35.0,5,-0.04689108
3.8108475,-6.6649003,-0.40235886,40.0,6,-0.04688647
5.033301,-8.810019,-0.17710702,35.0,7,-0.046881862
1.5372171,-2.699406,-0.83236206,39.0,0,-0.04685882
7.8526683,-13.795153,0.2770744,24.0,8,-0.04685652
1.6769203,-2.9471202,-0.7828297,40.0,1,-0.046854217
19.63424,-34.520412,2.0812964,25.0,9,-0.04685191
1.9111651,-3.360161,-0.7514059,41.0,2,-0.04684961
2.21264,-3.893368,-0.709274,37.0,3,-0.046845
2.5466092,-4.4846644,-0.63323313,52.0,4,-0.046840392
3.043994,-5.362756,-0.53949404,34.0,5,-0.046835784
3.8003693,-6.700746,-0.4037196,50.0,6,-0.046831176
5.096179,-8.992812,-0.18042298,54.0,7,-0.046826568
1.5268353,-2.7030733,-0.83184445,41.0,0,-0.046803527
7.8634586,-13.926957,0.2791687,44.0,8,-0.046801224
1.6685383,-2.95635,-0.7837295,40.0,1,-0.04679892
19.596052,-34.734856,2.0900888,15.0,9,-0.046796616
1.9042474,-3.3753614,-0.75331396,37.0,2,-0.04679431
2.1738155,-3.8563273,-0.7011394,35.0,3,-0.046789702
2.5202231,-4.474501,-0.63055205,55.0,4,-0.046785094
3.0272107,-5.376821,-0.53984267,34.0,5,-0.046780486
3.876839,-6.8915253,-0.41439614,44.0,6,-0.046775877
5.0804343,-9.038437,-0.18098146,58.0,7,-0.04677127
1.515502,-2.705016,-0.8308091,42.0,0,-0.046748232
7.711224,-13.76938,0.27546877,22.0,8,-0.046745926
1.6572565,-2.960456,-0.78327954,41.0,1,-0.046743624
19.666819,-35.146408,2.1107094,15.0,9,-0.046741318
1.8857427,-3.369995,-0.75064266,41.0,2,-0.046739016
2.1555214,-3.8552704,-0.699575,34.0,3,-0.046734408
2.5171745,-4.5058,-0.63372064,53.0,4,-0.0467298
2.9909387,-5.356044,-0.5367051,35.0,5,-0.04672519
4.0065193,-7.1805887,-0.4309343,63.0,6,-0.046720583
5.028405,-9.019437,-0.18024845,50.0,7,-0.046715975
1.5013586,-2.7018461,-0.82822096,40.0,0,-0.046692934
7.730111,-13.916834,0.2778772,35.0,8,-0.04669063
1.6554261,-2.9815567,-0.7873287,40.0,1,-0.046688326
19.70103,-35.49775,2.1276662,15.0,9,-0.046686023
1.880637,-3.3885732,-0.75331396,34.0,2,-0.046683718
2.1439667,-3.866226,-0.70020074,33.0,3,-0.04667911
2.5043175,-4.5197678,-0.63445187,50.0,4,-0.0466745
2.97512,-5.3716803,-0.537228,35.0,5,-0.046669893
3.9969032,-7.2224913,-0.43260908,63.0,6,-0.04666529
5.0114055,-9.063185,-0.18077204,54.0,7,-0.04666068
1.4891208,-2.701995,-0.8266681,43.0,0,-0.04663764
7.5271034,-13.663493,0.27229246,50.0,8,-0.046635333
1.6478283,-2.992438,-0.7886784,39.0,1,-0.04663303
19.815847,-36.00023,2.1536248,16.0,9,-0.046630725
1.865957,-3.3899574,-0.7521691,28.0,2,-0.046628423
2.1152267,-3.8459926,-0.69519484,34.0,3,-0.046623815
2.5219858,-4.5893717,-0.64298266,40.0,4,-0.046619207
2.9803326,-5.425689,-0.54158574,37.0,5,-0.0466146
3.9687853,-7.231146,-0.43229502,57.0,6,-0.04660999
4.976854,-9.075362,-0.18066731,47.0,7,-0.046605382
1.4852391,-2.7173471,-0.8297739,42.0,0,-0.04658234
7.538808,-13.798484,0.27445656,24.0,8,-0.04658004
1.6317687,-2.9879098,-0.785979,37.0,1,-0.046577737
19.83361,-36.332138,2.1693256,16.0,9,-0.04657543
1.8691635,-3.4240217,-0.758275,29.0,2,-0.04657313
47.328182,-86.73398,8.644455,63.0,10,-0.046570823
2.10841,-3.8654919,-0.69738495,39.0,3,-0.04656852
2.5182998,-4.620807,-0.6461513,42.0,4,-0.046563912
2.969,-5.4500566,-0.5429803,35.0,5,-0.046559304
3.946384,-7.2502184,-0.43260908,55.0,6,-0.046554696
4.920304,-9.047005,-0.17975979,39.0,7,-0.046550088
1.4895544,-2.7479906,-0.8375384,45.0,0,-0.046527047
7.7611446,-14.324044,0.2843695,48.0,8,-0.046524744
1.6287534,-3.007296,-0.7895782,39.0,1,-0.04652244
19.805555,-36.583817,2.1802115,16.0,9,-0.046520136
1.8581345,-3.4322517,-0.75865656,34.0,2,-0.04651783
2.11934,-3.9180026,-0.7055195,35.0,3,-0.046513222
2.482334,-4.5928965,-0.6410328,40.0,4,-0.046508614
2.9925733,-5.5392694,-0.5508243,40.0,5,-0.046504006
3.9362311,-7.29207,-0.4342838,49.0,6,-0.046499398
4.8621154,-9.014844,-0.17878245,43.0,7,-0.04649479
1.4717208,-2.7378592,-0.8328797,43.0,0,-0.046471752
7.622126,-14.185466,0.28108847,54.0,8,-0.046469446
1.6302332,-3.0352817,-0.79542696,43.0,1,-0.046467144
19.69191,-36.679123,2.1817815,11.0,9,-0.046464838
1.8535719,-3.4525547,-0.7617095,34.0,2,-0.046462536
2.1093857,-3.9323392,-0.70677096,35.0,3,-0.046457928
2.474727,-4.61728,-0.64322644,39.0,4,-0.04645332
2.98451,-5.570756,-0.55291605,39.0,5,-0.04644871
3.9371452,-7.3550696,-0.4372146,57.0,6,-0.046444103
4.823073,-9.017655,-0.17850322,25.0,7,-0.046439495
1.4585199,-2.7361608,-0.8308091,43.0,0,-0.046419382
7.650612,-14.358465,0.28398556,46.0,8,-0.04641708
1.6214601,-3.0443935,-0.79632676,43.0,1,-0.046414774
19.616173,-36.8306,2.1869106,11.0,9,-0.04641247
1.8304378,-3.4382083,-0.75713015,37.0,2,-0.046410166
2.0835865,-3.9170063,-0.70270365,34.0,3,-0.046405558
38.76796,-72.91192,10.139287,63.0,11,-0.046403255
2.471637,-4.6504307,-0.6466388,42.0,4,-0.04640095
2.970655,-5.5916977,-0.5539619,40.0,5,-0.04639634
3.9395409,-7.4216924,-0.4403548,60.0,6,-0.046391733
4.819386,-9.083059,-0.17948055,21.0,7,-0.046387125
1.4471543,-2.7378194,-0.8297739,41.0,0,-0.046364088
7.6356606,-14.445633,0.28520724,56.0,8,-0.04636178
1.6149974,-3.0566456,-0.79812634,44.0,1,-0.04635948
19.958517,-37.79072,2.2397697,12.0,9,-0.046357173
1.8156753,-3.4393682,-0.75598526,38.0,2,-0.04635487
2.066898,-3.9169064,-0.7014522,33.0,3,-0.046350263
2.424724,-4.5988984,-0.6383517,35.0,4,-0.046345655
2.9631903,-5.6249485,-0.556228,42.0,5,-0.046341047
3.913977,-7.4329476,-0.44025013,57.0,6,-0.04633644
45.715343,-86.853775,22.65977,22.0,14,-0.046334133
4.842584,-9.20424,-0.18153994,25.0,7,-0.04633183
1.4371706,-2.7408924,-0.8292563,39.0,0,-0.04630879
7.61304,-14.525332,0.28625438,38.0,8,-0.046306487
1.6007004,-3.0553598,-0.79632676,53.0,1,-0.04630418
19.710665,-37.638992,2.2266858,6.0,9,-0.04630188
1.8179218,-3.4714582,-0.7617095,37.0,2,-0.046299573
2.0165815,-3.8540864,-0.6889375,34.0,3,-0.046294965
2.4224513,-4.633722,-0.64200777,40.0,4,-0.046290357
2.9518392,-5.651151,-0.5577967,40.0,5,-0.04628575
3.904646,-7.4784327,-0.44213417,68.0,6,-0.04628114
4.9584117,-9.504759,-0.1871247,30.0,7,-0.046276536
1.4297875,-2.7512841,-0.8308091,43.0,0,-0.046253495
7.6083965,-14.640539,0.2879996,20.0,8,-0.04625119
1.5936185,-3.067846,-0.79812634,46.0,1,-0.046248887
20.12034,-38.74983,2.288233,12.0,9,-0.04624658
1.7943333,-3.4571877,-0.75713015,33.0,2,-0.04624428
2.016082,-3.887756,-0.69363046,37.0,3,-0.04623967
2.3843374,-4.5998526,-0.63615805,40.0,4,-0.046235062
2.915602,-5.6295757,-0.5546591,40.0,5,-0.046230454
3.8772097,-7.4926944,-0.44213417,65.0,6,-0.046225846
44.439095,-85.91512,22.33134,62.0,14,-0.046223544
4.912341,-9.497142,-0.18663603,26.0,7,-0.046221238
1.420175,-2.7562582,-0.8308091,49.0,0,-0.046198197
7.6947727,-14.940326,0.29334006,32.0,8,-0.046195894
1.5850395,-3.0788643,-0.799476,51.0,1,-0.04619359
19.785664,-38.432713,2.2654145,6.0,9,-0.046191286
1.7786611,-3.4564474,-0.7556037,36.0,2,-0.04618898
2.016048,-3.9211214,-0.69832355,33.0,3,-0.046184376
2.3810682,-4.6350465,-0.63981414,42.0,4,-0.046179768
2.8986635,-5.6450357,-0.5551821,39.0,5,-0.04617516
3.857414,-7.518623,-0.44286692,63.0,6,-0.04617055
44.33456,-86.45121,22.430319,62.0,14,-0.046168245
4.8782477,-9.512453,-0.18660113,22.0,7,-0.046165943
1.4096663,-2.7594786,-0.8302915,45.0,0,-0.046142902
7.623353,-14.923021,0.2925023,38.0,8,-0.046140596
1.5721625,-3.0788968,-0.79812634,45.0,1,-0.046138294
1.7737225,-3.4766254,-0.75865656,32.0,2,-0.046133686
1.9967521,-3.9154673,-0.6961335,35.0,3,-0.046129078
2.375598,-4.662373,-0.6424952,34.0,4,-0.04612447
2.9006352,-5.6977324,-0.5593655,37.0,5,-0.04611986
3.835178,-7.5367117,-0.44318092,57.0,6,-0.046115253
43.544044,-85.60768,22.173876,60.0,14,-0.04611295
4.9111714,-9.659548,-0.18914919,30.0,7,-0.046110645
1.3952692,-2.7537982,-0.8271857,46.0,0,-0.046087608
7.632654,-15.070848,0.29487586,54.0,8,-0.0460853
1.5561246,-3.073934,-0.79542696,43.0,1,-0.046083
20.135479,-39.792423,2.3372192,6.0,9,-0.046080694
1.7657295,-3.4894955,-0.7601831,31.0,2,-0.04607839
1.9928762,-3.9418051,-0.699575,42.0,3,-0.046073783
2.3861597,-4.723793,-0.6498074,37.0,4,-0.046069175
2.8871129,-5.7179914,-0.5604114,34.0,5,-0.046064567
3.807947,-7.5482707,-0.44307625,60.0,6,-0.04605996
4.8423223,-9.60699,-0.18778789,26.0,7,-0.04605535
1.3899837,-2.7672834,-0.8297739,44.0,0,-0.04603231
7.572822,-15.083104,0.29459664,52.0,8,-0.046030007
1.5445108,-3.0776055,-0.794977,50.0,1,-0.0460277
20.902744,-41.66912,2.4431474,7.0,9,-0.0460254
1.751778,-3.4921277,-0.75941986,30.0,2,-0.046023093
1.9773349,-3.9452055,-0.6989493,35.0,3,-0.046018485
2.3794336,-4.751618,-0.6524885,42.0,4,-0.046013877
2.8707027,-5.735161,-0.56110865,39.0,5,-0.04600927
3.7833617,-7.565089,-0.44328558,60.0,6,-0.04600466
4.8686438,-9.743685,-0.19012651,30.0,7,-0.046000056
1.3837599,-2.779036,-0.83184445,47.0,0,-0.045977015
7.549529,-15.168524,0.29574847,36.0,8,-0.04597471
1.5424385,-3.1004255,-0.799476,48.0,1,-0.045972407
21.20181,-42.636005,2.4954834,7.0,9,-0.0459701
1.727339,-3.4736109,-0.7540772,34.0,2,-0.0459678
1.9714615,-3.9680045,-0.70176506,37.0,3,-0.04596319
2.3857813,-4.806124,-0.6588257,42.0,4,-0.045958582
2.8630643,-5.770133,-0.563549,35.0,5,-0.045953974
3.7604809,-7.5854077,-0.4437043,60.0,6,-0.045949366
4.8922944,-9.877096,-0.19239533,41.0,7,-0.045944758
1.3714856,-2.7786524,-0.8302915,45.0,0,-0.045921717
7.522195,-15.24679,0.29676074,32.0,8,-0.045919415
1.536778,-3.1162777,-0.80217546,41.0,1,-0.04591711
21.361923,-43.33676,2.5321186,8.0,9,-0.045914806
1.7169393,-3.4831412,-0.75484043,36.0,2,-0.0459125
1.9776721,-4.015621,-0.70896107,34.0,3,-0.045907892
2.3593495,-4.794831,-0.6561446,43.0,4,-0.045903288
2.8640096,-5.8230004,-0.5677325,37.0,5,-0.04589868
3.7480733,-7.6271677,-0.44537902,57.0,6,-0.04589407
4.8710065,-9.92104,-0.19291891,45.0,7,-0.045889463
1.3575332,-2.7747462,-0.82770336,48.0,0,-0.045866422
7.6235414,-15.589119,0.30290398,22.0,8,-0.045864116
1.5267467,-3.1233733,-0.80262536,40.0,1,-0.045861814
21.691,-44.394455,2.5894785,8.0,9,-0.04585951
1.6978756,-3.4750016,-0.7517875,32.0,2,-0.045857206
1.9558437,-4.006524,-0.7061453,35.0,3,-0.045852598
2.35217,-4.8226633,-0.6588257,42.0,4,-0.04584799
2.8471582,-5.8401256,-0.56842977,39.0,5,-0.04584338
3.7756517,-7.7515306,-0.4518687,60.0,6,-0.045838773
4.8162208,-9.896625,-0.1921161,41.0,7,-0.045834165
1.348682,-2.781206,-0.82822096,45.0,0,-0.045811128
7.97553,-16.45418,0.3191696,20.0,8,-0.045808822
1.5081874,-3.1129003,-0.79857624,41.0,1,-0.04580652
21.77617,-44.966026,2.6183681,8.0,9,-0.045804214
1.6960039,-3.5021105,-0.7563669,29.0,2,-0.04580191
1.9538913,-4.038221,-0.71052545,35.0,3,-0.045797303
2.3361862,-4.832632,-0.6590695,43.0,4,-0.045792695
2.8172195,-5.8302956,-0.56651235,40.0,5,-0.045788087
3.7424936,-7.7520733,-0.45113602,62.0,6,-0.04578348
4.802496,-9.956603,-0.19295381,41.0,7,-0.04577887
1.3414761,-2.7911203,-0.8297739,41.0,0,-0.04575583
7.360388,-15.321119,0.2966909,2.0,8,-0.045753527
1.469475,-3.0601747,-0.7837295,44.0,1,-0.04575122
22.158367,-46.165337,2.6836834,9.0,9,-0.04574892
1.6778221,-3.4956198,-0.7536956,29.0,2,-0.045746613
1.9876165,-4.1447616,-0.7280461,37.0,3,-0.045742005
2.3261638,-4.855079,-0.6610194,49.0,4,-0.045737397
2.8200867,-5.888611,-0.5712187,35.0,5,-0.04573279
3.7378228,-7.811933,-0.45385748,60.0,6,-0.04572818
4.832396,-10.108618,-0.19557166,46.0,7,-0.045723572
1.3416944,-2.8167152,-0.8359856,43.0,0,-0.045700535
7.348124,-15.433382,0.29836634,2.0,8,-0.04569823
1.4855818,-3.1215935,-0.79812634,44.0,1,-0.045695927
22.14465,-46.55262,2.7016869,9.0,9,-0.04569362
1.6672964,-3.505001,-0.75445884,30.0,2,-0.04569132
1.9731364,-4.1516747,-0.7280461,45.0,3,-0.04568671
2.310054,-4.864962,-0.6612631,52.0,4,-0.045682102
2.7986593,-5.89662,-0.57104445,39.0,5,-0.045677494
3.7225125,-7.8501973,-0.4553229,55.0,6,-0.045672886
4.8193407,-10.17241,-0.19647919,46.0,7,-0.045668278
1.3293802,-2.8161407,-0.83443266,46.0,0,-0.045645237
7.9333477,-16.813494,0.32451007,24.0,8,-0.045642935
1.4829885,-3.1443858,-0.80262536,44.0,1,-0.04564063
22.056606,-46.766705,2.7098515,9.0,9,-0.045638327
1.6609116,-3.5232303,-0.75713015,28.0,2,-0.04563602
1.9603153,-4.1621103,-0.7286718,46.0,3,-0.045631412
2.2879872,-4.862219,-0.65980065,47.0,4,-0.045626804
2.7907798,-5.9333963,-0.57365906,35.0,5,-0.0456222
3.6950865,-7.8631444,-0.4553229,60.0,6,-0.04561759
4.819589,-10.260734,-0.19787538,50.0,7,-0.045612983
1.3187233,-2.8190138,-0.833915,45.0,0,-0.045589942
7.919067,-16.928465,0.3262204,26.0,8,-0.045587637
1.477506,-3.159878,-0.8053248,43.0,1,-0.045585334
22.694914,-48.558712,2.8090804,10.0,9,-0.04558303
1.6402938,-3.511219,-0.75331396,28.0,2,-0.045580726
1.9465023,-4.168588,-0.7286718,46.0,3,-0.045576118
2.2768857,-4.8805733,-0.6612631,42.0,4,-0.04557151
2.7809935,-5.9665785,-0.5759251,40.0,5,-0.0455669
3.6757393,-7.8898373,-0.45616025,60.0,6,-0.045562293
4.785431,-10.281122,-0.1979452,50.0,7,-0.045557685
1.3020531,-2.8075984,-0.8292563,41.0,0,-0.045534644
8.171934,-17.62909,0.33917007,18.0,8,-0.045532342
1.4681054,-3.1685526,-0.8062246,44.0,1,-0.04553004
22.684744,-48.98198,2.828968,10.0,9,-0.045527734
1.6591679,-3.582554,-0.7674338,41.0,2,-0.04552543
1.9103727,-4.128746,-0.72053725,39.0,3,-0.045520823
2.2748296,-4.9209256,-0.6656504,47.0,4,-0.045516215
2.7862642,-6.0300264,-0.58115447,40.0,5,-0.045511607
3.671615,-7.953393,-0.45909104,62.0,6,-0.045507
4.7377877,-10.27234,-0.19745652,50.0,7,-0.04550239
1.2970842,-2.8226585,-0.83236206,41.0,0,-0.04547935
8.170443,-17.788347,0.3416832,30.0,8,-0.045477048
1.4489056,-3.1559477,-0.80172557,40.0,1,-0.04547474
22.646908,-49.351307,2.8457158,10.0,9,-0.04547244
1.6466522,-3.5883238,-0.7674338,30.0,2,-0.045470133
1.9091213,-4.1641192,-0.7255431,39.0,3,-0.045465525
2.273345,-4.963127,-0.67028147,54.0,4,-0.045460917
2.7718327,-6.0542088,-0.582549,39.0,5,-0.04545631
3.6720772,-8.027913,-0.46264988,62.0,6,-0.0454517
4.725176,-10.339742,-0.19843386,27.0,7,-0.045447093
1.2968299,-2.8482673,-0.83857375,42.0,0,-0.045424055
8.167939,-17.947802,0.34419635,36.0,8,-0.04542175
1.4201285,-3.1219618,-0.79182774,40.0,1,-0.045419447
22.887838,-50.339134,2.8980515,10.0,9,-0.04541714
1.6536189,-3.6369424,-0.7765927,33.0,2,-0.04541484
1.8937565,-4.1689596,-0.7252303,34.0,3,-0.04541023
2.2412398,-4.938494,-0.66589415,45.0,4,-0.045405623
2.7720828,-6.1110225,-0.5870811,39.0,5,-0.045401014
3.6489787,-8.051599,-0.4632779,60.0,6,-0.045396406
4.6733828,-10.321561,-0.19777067,38.0,7,-0.045391798
1.2757585,-2.828123,-0.8313268,47.0,0,-0.045368757
7.7567334,-17.20327,0.32939672,10.0,8,-0.045366455
1.4388481,-3.1926355,-0.80847406,50.0,1,-0.04536415
23.33377,-51.799057,2.977393,11.0,9,-0.045361847
1.6320434,-3.6230025,-0.7723949,46.0,2,-0.04535954
1.8751397,-4.1665382,-0.72366595,35.0,3,-0.045354933
2.212591,-4.920941,-0.66248184,43.0,4,-0.045350324
2.7245998,-6.0625076,-0.5815031,39.0,5,-0.045345716
3.6282141,-8.080685,-0.46422,57.0,6,-0.04534111
4.6847954,-10.443635,-0.19979516,38.0,7,-0.045336504
1.2619375,-2.8237407,-0.82873863,45.0,0,-0.045313463
7.650147,-17.12617,0.32740712,2.0,8,-0.045311157
1.4364346,-3.2172124,-0.81342304,47.0,1,-0.045308854
1.6249877,-3.6412268,-0.7750662,46.0,2,-0.045304246
1.8605838,-4.1730585,-0.72366595,35.0,3,-0.045299638
2.2050931,-4.9503937,-0.66540664,43.0,4,-0.04529503
2.7366457,-6.1466074,-0.58864987,39.0,5,-0.04529042
3.6064794,-8.107899,-0.46505737,60.0,6,-0.045285814
4.695411,-10.565911,-0.20181963,44.0,7,-0.045281205
1.2684965,-2.8652244,-0.839609,48.0,0,-0.045258164
8.235255,-18.610205,0.35522628,31.0,8,-0.045255862
1.4117947,-3.19191,-0.8057747,45.0,1,-0.04525356
23.664486,-53.52801,3.0672014,12.0,9,-0.045251254
1.609886,-3.6414902,-0.7739213,38.0,2,-0.04524895
1.8635643,-4.2192807,-0.73054904,39.0,3,-0.045244344
2.1741757,-4.9271865,-0.6612631,42.0,4,-0.045239735
2.7417066,-6.21628,-0.59440213,39.0,5,-0.045235127
3.6071472,-8.186236,-0.46882552,60.0,6,-0.04523052
4.706036,-10.69022,-0.20387901,32.0,7,-0.04522591
1.2631422,-2.88025,-0.84271485,44.0,0,-0.04520287
8.213593,-18.73774,0.35711116,17.0,8,-0.045200568
1.4022086,-3.2003884,-0.8066745,48.0,1,-0.04519826
23.623308,-53.943256,3.0862515,12.0,9,-0.04519596
1.607403,-3.6704662,-0.7788824,32.0,2,-0.045193654
1.8314061,-4.185946,-0.72366595,35.0,3,-0.045189045
2.1585534,-4.938384,-0.6617506,45.0,4,-0.045184437
2.7407298,-6.273282,-0.59893423,40.0,5,-0.04517983
3.5793493,-8.200607,-0.46893018,65.0,6,-0.04517522
4.6223335,-10.600267,-0.20185454,28.0,7,-0.045170613
1.2576991,-2.895273,-0.84582067,44.0,0,-0.045147575
7.792139,-17.946383,0.3415087,4.0,8,-0.04514527
1.3980104,-3.2213523,-0.8107236,47.0,1,-0.045142967
23.719416,-54.68136,3.1237242,12.0,9,-0.04514066
1.6070818,-3.7048726,-0.7849883,32.0,2,-0.04513836
1.8372046,-4.239438,-0.73180056,33.0,3,-0.04513375
2.1357818,-4.933137,-0.66004443,45.0,4,-0.045129143
2.7322667,-6.3138957,-0.60189754,39.0,5,-0.045124535
3.5721023,-8.26255,-0.47175637,54.0,6,-0.045119926
4.6749,-10.823781,-0.20579877,24.0,7,-0.04511532
1.247585,-2.8996456,-0.84582067,48.0,0,-0.045129538
8.4657345,-19.685581,0.37403998,22.0,8,-0.045127235
1.3867575,-3.2262125,-0.8107236,44.0,1,-0.04512493
1.5817397,-3.6815984,-0.7788824,32.0,2,-0.04512032
1.8410946,-4.289391,-0.7393094,33.0,3,-0.045115713
2.1255891,-4.956982,-0.6622381,42.0,4,-0.045111105
2.7000074,-6.2995877,-0.5996315,39.0,5,-0.045106497
3.5621054,-8.319033,-0.47426847,57.0,6,-0.04510189
4.630798,-10.825326,-0.20551954,20.0,7,-0.04509728
1.2329117,-2.8933194,-0.84271485,48.0,0,-0.045074243
7.9659925,-18.703136,0.35484233,2.0,8,-0.045071937
1.3754877,-3.2310336,-0.8107236,40.0,1,-0.045069635
1.582715,-3.7196145,-0.78575146,36.0,2,-0.045065027
1.8299743,-4.3048806,-0.7408737,34.0,3,-0.04506042
2.09741,-4.938791,-0.6588257,43.0,4,-0.04505581
2.6951272,-6.349323,-0.60346633,35.0,5,-0.045051202
3.5221293,-8.305675,-0.4728031,49.0,6,-0.045046594
4.5805006,-10.811964,-0.20496106,20.0,7,-0.045041986
1.2258093,-2.9047246,-0.8447854,42.0,0,-0.045018945
8.450114,-20.033474,0.37952003,31.0,8,-0.045016643
1.3626864,-3.2322242,-0.8098238,43.0,1,-0.045014337
1.5796322,-3.748636,-0.7907125,38.0,2,-0.04500973
1.8049725,-4.2875743,-0.7368064,33.0,3,-0.04500512
2.1032455,-5.0009775,-0.6661379,40.0,4,-0.045000512
2.6659994,-6.3421607,-0.60189754,39.0,5,-0.044995904
3.5248206,-8.393418,-0.47709462,52.0,6,-0.044991296
4.668834,-11.128457,-0.21065055,32.0,7,-0.04498669
1.2171522,-2.912551,-0.84582067,42.0,0,-0.04496365
1.3513958,-3.236961,-0.8098238,40.0,1,-0.044959042
25.482584,-61.0677,3.4678853,25.0,9,-0.044956736
1.5635135,-3.7468793,-0.78918606,41.0,2,-0.044954434
1.8173585,-4.359487,-0.7480697,30.0,3,-0.044949826
2.0781434,-4.989964,-0.66370046,42.0,4,-0.044945218
2.6545641,-6.3771806,-0.60433793,39.0,5,-0.04494061
3.5277112,-8.483127,-0.48149085,68.0,6,-0.044936
4.677525,-11.259179,-0.21281464,32.0,7,-0.044931393
1.2032847,-2.9078567,-0.84323245,45.0,0,-0.044908352
8.423927,-20.367313,0.38472083,23.0,8,-0.04490605
1.33041,-3.2182465,-0.80397505,36.0,1,-0.044903744
25.279934,-61.15187,3.4678853,25.0,9,-0.04490144
1.5496751,-3.7505,-0.7888045,43.0,2,-0.044899136
1.7991143,-4.3585005,-0.74681824,33.0,3,-0.04489453
2.066884,-5.009673,-0.66540664,36.0,4,-0.044889923
2.6406388,-6.40667,-0.60625535,39.0,5,-0.044885315
3.5193715,-8.547099,-0.48442167,52.0,6,-0.044880707
4.615047,-11.213605,-0.21166278,24.0,7,-0.0448761
1.1899714,-2.9028933,-0.8406443,48.0,0,-0.044853058
8.334353,-20.341476,0.38370863,15.0,8,-0.04485075
1.3441019,-3.282152,-0.81882185,47.0,1,-0.04484845
1.5394605,-3.7610693,-0.7899493,35.0,2,-0.04484384
1.7839035,-4.3626146,-0.7465054,33.0,3,-0.044839233
2.075795,-5.078976,-0.6736938,42.0,4,-0.044834625
2.6404662,-6.4670396,-0.6111361,35.0,5,-0.044830017
3.4970431,-8.573518,-0.48525903,52.0,6,-0.04482541
4.706172,-11.54364,-0.2175966,44.0,7,-0.0448208
1.178158,-2.9014535,-0.83909136,39.0,0,-0.044797763
8.489449,-20.91746,0.39404044,16.0,8,-0.044795457
1.3251526,-3.2667274,-0.81387293,39.0,1,-0.044793155
1.5203408,-3.7497792,-0.7865147,31.0,2,-0.044788547
1.7805507,-4.395969,-0.75119835,36.0,3,-0.04478394
2.0506074,-5.06779,-0.6712564,42.0,4,-0.04477933
2.6115367,-6.457289,-0.60939294,32.0,5,-0.044774722
3.4678445,-8.583215,-0.48515436,57.0,6,-0.044770114
4.69953,-11.643443,-0.21916732,40.0,7,-0.044765506
1.1658614,-2.900171,-0.8375384,43.0,0,-0.044742465
8.6184225,-21.449812,0.40349963,25.0,8,-0.044740163
1.3260872,-3.3020751,-0.8215213,43.0,1,-0.044737857
27.659056,-68.90829,3.8913882,40.0,9,-0.044735555
1.519675,-3.7860365,-0.7930022,31.0,2,-0.04473325
1.7666656,-4.4058247,-0.75182414,34.0,3,-0.04472864
30.498741,-76.09815,10.066165,63.0,11,-0.04472634
2.0461917,-5.108086,-0.6756437,45.0,4,-0.044724032
2.6178622,-6.538502,-0.6161911,35.0,5,-0.044719424
3.4319282,-8.580432,-0.484317,52.0,6,-0.044714816
4.6321454,-11.592928,-0.21791075,32.0,7,-0.04471021
1.1628741,-2.9221725,-0.84271485,48.0,0,-0.04468717
8.23457,-20.703075,0.38890943,2.0,8,-0.044684865
1.3073536,-3.2885752,-0.81702226,43.0,1,-0.044682562
27.418343,-69.00442,3.8913882,40.0,9,-0.044680256
1.5223984,-3.8314574,-0.80139786,31.0,2,-0.044677954
1.7614789,-4.437669,-0.75620425,39.0,3,-0.044673346
23.688389,-59.708233,7.8871408,27.0,11,-0.04467104
2.0246904,-5.105971,-0.674425,43.0,4,-0.044668738
29.37578,-74.11914,12.627704,63.0,12,-0.04466643
2.6107566,-6.5906577,-0.6202002,34.0,5,-0.04466413
3.3174033,-8.378804,-0.4722797,35.0,6,-0.04465952
4.6644654,-11.793119,-0.22136633,40.0,7,-0.044654913
1.1592327,-2.9443908,-0.8478913,47.0,0,-0.044631872
8.3703,-21.260126,0.3988224,2.0,8,-0.04462957
1.2894444,-3.2767978,-0.8129731,39.0,1,-0.044627264
27.222635,-69.214935,3.8978777,41.0,9,-0.044624962
1.5018812,-3.820567,-0.79796326,30.0,2,-0.044622656
1.7581992,-4.477192,-0.76183593,43.0,3,-0.044618048
2.0242617,-5.157356,-0.6802747,43.0,4,-0.044613443
2.5760987,-6.5700517,-0.61741126,34.0,5,-0.044608835
3.3536866,-8.561998,-0.4819095,49.0,6,-0.044604227
4.6414967,-11.855881,-0.22223894,48.0,7,-0.04459962
1.1377249,-2.9196193,-0.839609,43.0,0,-0.044576578
8.766956,-22.509296,0.42165014,23.0,8,-0.044574272
1.2816671,-3.292398,-0.8156725,41.0,1,-0.04457197
27.038832,-69.458435,3.9062514,41.0,9,-0.044569664
1.5006375,-3.8568902,-0.80445075,31.0,2,-0.04456736
1.7346882,-4.4630485,-0.75839436,37.0,3,-0.044562753
2.0154042,-5.190647,-0.68368703,43.0,4,-0.044558145
2.5617988,-6.601293,-0.619503,34.0,5,-0.044553537
3.3461597,-8.631381,-0.48515436,52.0,6,-0.04454893
23.017717,-59.404724,14.7081995,13.0,14,-0.044546627
4.623924,-11.933542,-0.2233908,44.0,7,-0.04454432
1.1254413,-2.9181652,-0.8380561,46.0,0,-0.044521283
8.707377,-22.577425,0.42238316,18.0,8,-0.044518977
1.2665366,-3.28572,-0.8129731,36.0,1,-0.044516675
1.4603572,-3.7924843,-0.7899493,32.0,2,-0.044512067
1.7255551,-4.483525,-0.76089734,37.0,3,-0.04450746
2.0359354,-5.295504,-0.6966052,48.0,4,-0.04450285
2.5387402,-6.6101956,-0.619503,34.0,5,-0.044498242
3.3268232,-8.66667,-0.4865151,52.0,6,-0.044493634
22.783598,-59.384293,14.684354,26.0,14,-0.04449133
4.592265,-11.975751,-0.22387949,40.0,7,-0.044489026
1.1226497,-2.9399288,-0.84323245,45.0,0,-0.044465985
8.767556,-22.971987,0.4291896,13.0,8,-0.044463683
1.2453357,-3.2646306,-0.8066745,36.0,1,-0.044461377
1.4785467,-3.8780222,-0.80674046,32.0,2,-0.04445677
1.6902071,-4.4378324,-0.752137,37.0,3,-0.04445216
1.9990855,-5.254339,-0.690268,45.0,4,-0.044447552
2.539467,-6.6781716,-0.625081,34.0,5,-0.044442944
21.289358,-56.015163,11.648127,40.0,13,-0.044440642
3.2887487,-8.657692,-0.4853637,52.0,6,-0.044438336
22.59831,-59.521763,14.698751,26.0,14,-0.044436034
4.5639124,-12.027229,-0.22454266,48.0,7,-0.044433728
1.1144295,-2.949251,-0.8447854,49.0,0,-0.04441069
8.829325,-23.37847,0.43620545,15.0,8,-0.044408385
1.2587073,-3.3345923,-0.82287097,37.0,1,-0.044406082
1.4781677,-3.91806,-0.81399125,38.0,2,-0.044401474
1.6942122,-4.4954624,-0.76089734,36.0,3,-0.044396866
1.968143,-5.2278457,-0.6858807,42.0,4,-0.044392258
22.978523,-61.068623,10.334375,32.0,12,-0.044389952
2.5154395,-6.6851306,-0.62490666,35.0,5,-0.04438765
3.270454,-8.700902,-0.48714313,57.0,6,-0.04438304
22.368477,-59.5419,14.684354,26.0,14,-0.04438074
4.565483,-12.159158,-0.22670676,28.0,7,-0.044378433
1.1108929,-2.9712183,-0.84996176,48.0,0,-0.044355392
8.864561,-23.72197,0.44203454,5.0,8,-0.04435309
1.223878,-3.276896,-0.8075743,39.0,1,-0.044350784
1.4562429,-3.9011245,-0.80941176,33.0,2,-0.044346176
1.67782,-4.499498,-0.7605845,37.0,3,-0.044341568
1.9824494,-5.322114,-0.69733644,46.0,4,-0.04433696
2.5115516,-6.746152,-0.6297874,29.0,5,-0.044332355
20.966248,-56.346424,11.686288,40.0,13,-0.04433005
3.2699986,-8.79276,-0.491644,52.0,6,-0.044327747
22.08581,-59.4187,14.634867,26.0,14,-0.04432544
4.6184177,-12.4318285,-0.23148872,24.0,7,-0.04432314
1.0904614,-2.9478998,-0.84219724,45.0,0,-0.044300098
10.229604,-27.669048,0.5149158,3.0,8,-0.044297792
1.2367477,-3.346954,-0.82377076,36.0,1,-0.04429549
28.144646,-76.20745,4.2575307,52.0,9,-0.044293184
1.4222122,-3.8509338,-0.79796326,31.0,2,-0.04429088
29.287374,-79.34423,7.3995223,63.0,10,-0.04428858
1.6744097,-4.5386863,-0.7662161,39.0,3,-0.044286273
1.9892575,-5.39792,-0.7063548,46.0,4,-0.044281665
2.4735274,-6.7156157,-0.6261269,35.0,5,-0.044277057
3.2723894,-8.8940935,-0.49666828,47.0,6,-0.04427245
21.979828,-59.771606,14.702801,13.0,14,-0.044270147
4.608106,-12.537968,-0.23316415,27.0,7,-0.04426784
1.084148,-2.9625735,-0.84530306,50.0,0,-0.0442448
10.168675,-27.802244,0.51673084,9.0,8,-0.044242498
1.2217121,-3.3420994,-0.8215213,34.0,1,-0.044240195
22.366219,-61.18473,3.414084,23.0,9,-0.04423789
1.4269518,-3.9056637,-0.80826694,36.0,2,-0.044235587
22.493351,-61.59918,5.737288,34.0,10,-0.04423328
1.6524615,-4.527802,-0.76340026,37.0,3,-0.04423098
20.711376,-56.780674,7.421112,18.0,11,-0.044228673
1.969043,-5.4011006,-0.7058673,46.0,4,-0.04422637
2.4207413,-6.643713,-0.6186315,37.0,5,-0.044221763
20.459501,-56.181507,11.622177,40.0,13,-0.044219457
3.274795,-8.997425,-0.5017972,54.0,6,-0.044217154
21.403982,-58.8389,14.454905,25.0,14,-0.04421485
4.552147,-12.513716,-0.23243116,32.0,7,-0.044212546
1.0816908,-2.988138,-0.8515147,56.0,0,-0.044189505
9.951862,-27.491718,0.51034325,9.0,8,-0.044187203
1.2086335,-3.3406346,-0.82017154,37.0,1,-0.044184897
1.4079715,-3.8958504,-0.805214,32.0,2,-0.04418029
1.6374376,-4.533257,-0.76340026,37.0,3,-0.04417568
1.9565116,-5.4225383,-0.7078172,46.0,4,-0.044171073
2.4319878,-6.747715,-0.62752134,35.0,5,-0.044166464
3.2686317,-9.074002,-0.5054607,54.0,6,-0.044161856
4.5626016,-12.680058,-0.23522353,31.0,7,-0.044157248
1.0698211,-2.9862528,-0.84996176,45.0,0,-0.04413421
9.881456,-27.59783,0.51166964,9.0,8,-0.044131905
1.1851468,-3.311807,-0.8120733,37.0,1,-0.044129603
1.3864335,-3.8785565,-0.80063456,32.0,2,-0.044124994
1.6342309,-4.5742893,-0.7693448,39.0,3,-0.044120386
21.292334,-59.6311,7.7745333,50.0,11,-0.04411808
1.9349025,-5.4218564,-0.70684224,46.0,4,-0.044115778
2.4164476,-6.778684,-0.6296131,35.0,5,-0.04411117
20.178144,-56.63552,11.686669,40.0,13,-0.044108864
3.2407107,-9.100975,-0.5062981,51.0,6,-0.04410656
4.559882,-12.81271,-0.23738763,31.0,7,-0.044101954
1.0627383,-3.00108,-0.85306764,49.0,0,-0.044078913
9.830941,-27.777132,0.5143224,6.0,8,-0.04407661
1.1833981,-3.3455236,-0.81927174,36.0,1,-0.044074304
1.3623978,-3.8558457,-0.7949104,31.0,2,-0.044069696
1.6121926,-4.5653477,-0.7668419,39.0,3,-0.044065088
1.9150172,-5.4289117,-0.70684224,46.0,4,-0.04406048
2.4048285,-6.8250775,-0.6330993,35.0,5,-0.04405587
19.970427,-56.709095,11.686669,40.0,13,-0.04405357
3.2040167,-9.103372,-0.50577474,47.0,6,-0.044051267
4.575266,-13.006658,-0.24066868,27.0,7,-0.04404666
1.0459878,-2.9885442,-0.8484089,46.0,0,-0.044023618
9.839331,-28.128197,0.5201515,3.0,8,-0.044021312
1.1691989,-3.3443196,-0.81792206,32.0,1,-0.04401901
1.3515208,-3.8679912,-0.7964368,28.0,2,-0.0440144
1.5967501,-4.574956,-0.76746756,49.0,3,-0.044009794
1.9189392,-5.5011654,-0.7153731,48.0,4,-0.044005185
19.700436,-56.508423,9.478366,20.0,12,-0.044002883
2.4052455,-6.903044,-0.63954884,29.0,5,-0.044000577
19.707796,-56.593056,11.648508,40.0,13,-0.043998275
3.2162073,-9.240881,-0.51278776,51.0,6,-0.04399597
4.5587425,-13.105652,-0.24220449,27.0,7,-0.04399136
1.0367038,-2.993822,-0.84892654,43.0,0,-0.04396832
11.191358,-32.336964,0.5972912,4.0,8,-0.043966018
1.1682945,-3.3776455,-0.82512045,34.0,1,-0.043963715
1.333555,-3.8576078,-0.7933838,28.0,2,-0.043959107
1.5854391,-4.5914288,-0.7693448,45.0,3,-0.0439545
20.247,-58.66846,7.6204906,22.0,11,-0.043952193
1.918171,-5.5581636,-0.72195405,58.0,4,-0.04394989
19.538698,-56.648136,9.49088,20.0,12,-0.043947585
2.4258456,-7.0371842,-0.65122765,37.0,5,-0.043945283
19.665821,-57.081306,11.735517,40.0,13,-0.043942977
3.2161067,-9.340252,-0.5177073,49.0,6,-0.043940675
4.5230656,-13.143387,-0.24262336,27.0,7,-0.043936066
1.0324051,-3.0136914,-0.85358524,45.0,0,-0.043913025
11.086652,-32.381462,0.59743077,8.0,8,-0.043910723
1.1507782,-3.3630636,-0.8206215,33.0,1,-0.043908417
1.3436258,-3.928883,-0.80712205,31.0,2,-0.04390381
20.925682,-61.223503,5.660591,32.0,10,-0.043901507
1.5663731,-4.585445,-0.76746756,49.0,3,-0.0438992
20.20883,-59.193665,7.6799626,23.0,11,-0.0438969
1.9131974,-5.603945,-0.72707254,50.0,4,-0.043894593
19.429844,-56.944443,9.5296755,20.0,12,-0.04389229
2.4256463,-7.1130776,-0.6575029,37.0,5,-0.043889984
19.68795,-57.76688,11.862978,41.0,13,-0.043887682
3.1741683,-9.318726,-0.5159279,54.0,6,-0.043885376
4.512967,-13.25675,-0.24443841,27.0,7,-0.043880768
1.0298458,-3.0390546,-0.85979694,43.0,0,-0.04385773
11.167799,-32.974895,0.60769284,17.0,8,-0.043855425
1.1521157,-3.4037783,-0.82961947,34.0,1,-0.043853123
1.3356228,-3.9481955,-0.81017506,26.0,2,-0.043848515
1.5600114,-4.616814,-0.7718477,40.0,3,-0.043843906
19.315054,-57.195297,7.412338,17.0,11,-0.0438416
1.8920634,-5.602735,-0.7260976,56.0,4,-0.0438393
19.238375,-57.001076,9.528424,20.0,12,-0.043836992
2.4128706,-7.153177,-0.6604662,39.0,5,-0.04383469
18.931835,-56.1575,11.519521,39.0,13,-0.043832384
3.1553655,-9.365162,-0.5179167,49.0,6,-0.04383008
4.47983,-13.303861,-0.24503179,23.0,7,-0.043825474
1.023073,-3.0576425,-0.863938,43.0,0,-0.04379964
11.101982,-33.19959,0.61104363,25.0,8,-0.043797337
1.1526269,-3.4488385,-0.8395173,40.0,1,-0.04379503
1.3142332,-3.9346735,-0.8063589,31.0,2,-0.043790422
1.5572772,-4.6677427,-0.7793566,34.0,3,-0.043785814
19.181946,-57.528915,7.445974,18.0,11,-0.043783512
1.8695567,-5.6102858,-0.7260976,56.0,4,-0.043781206
2.384757,-7.160498,-0.6602919,34.0,5,-0.043776598
18.802864,-56.49057,11.572948,39.0,13,-0.043774296
3.1124475,-9.356361,-0.5167653,51.0,6,-0.04377199
4.443413,-13.372973,-0.24597423,27.0,7,-0.04376738
1.0154264,-3.0703657,-0.8665262,46.0,0,-0.043744344
11.005485,-33.297,0.6121257,34.0,8,-0.04374204
1.1283562,-3.415833,-0.83051926,34.0,1,-0.043739736
1.3004905,-3.939237,-0.8063589,31.0,2,-0.043735128
19.54604,-59.24045,5.4576926,28.0,10,-0.043732822
1.5477788,-4.693786,-0.7827982,36.0,3,-0.04373052
18.92633,-57.429615,7.424525,18.0,11,-0.043728214
1.8493414,-5.614892,-0.72585386,48.0,4,-0.04372591
18.73593,-56.91869,9.49088,20.0,12,-0.043723606
2.381551,-7.2350163,-0.6663928,37.0,5,-0.043721303
18.62151,-56.60435,11.58287,39.0,13,-0.043718997
3.074779,-9.351991,-0.5159279,49.0,6,-0.043716695
24.057274,-73.213684,17.791828,21.0,14,-0.04371439
4.4229093,-13.468198,-0.24744022,27.0,7,-0.043712087
1.0005013,-3.0610378,-0.8629027,44.0,0,-0.043689046
10.9432125,-33.500587,0.61516243,17.0,8,-0.043686744
1.1309406,-3.4642115,-0.84131694,43.0,1,-0.043684438
1.2916034,-3.9586837,-0.80941176,31.0,2,-0.04367983
1.5326091,-4.702917,-0.7834239,36.0,3,-0.04367522
18.865915,-57.92568,7.4800973,19.0,11,-0.04367292
1.8592216,-5.711919,-0.73755336,46.0,4,-0.043670613
19.024782,-58.482773,9.740549,23.0,12,-0.04366831
2.3760052,-7.3039145,-0.6719708,39.0,5,-0.043666005
18.460236,-56.781025,11.605766,40.0,13,-0.043663703
3.082232,-9.4861355,-0.5227316,55.0,6,-0.043661397
23.741377,-73.11187,17.74684,21.0,14,-0.043659095
4.3635254,-13.445513,-0.24674211,27.0,7,-0.043656792
0.99634194,-3.0847332,-0.86859673,45.0,0,-0.04363375
10.895617,-33.753624,0.6191067,21.0,8,-0.043631446
1.1122602,-3.447737,-0.836368,41.0,1,-0.043629143
1.289224,-3.9986703,-0.81666255,32.0,2,-0.043624535
1.5131558,-4.6988363,-0.7818595,30.0,3,-0.043619927
18.679413,-58.040314,7.4864345,19.0,11,-0.04361762
1.8417039,-5.725933,-0.7385283,46.0,4,-0.04361532
18.59564,-57.849243,9.624163,22.0,12,-0.043613017
2.3383005,-7.2742276,-0.66848457,40.0,5,-0.04361071
18.347189,-57.110542,11.659957,40.0,13,-0.04360841
3.0619226,-9.53677,-0.5249297,51.0,6,-0.043606102
23.07044,-71.89911,17.432806,20.0,14,-0.0436038
4.316563,-13.460663,-0.24674211,15.0,7,-0.043601494
22.355675,-69.75521,19.627285,58.0,15,-0.043599192
0.9885048,-3.0973945,-0.87118495,43.0,0,-0.043578453
10.825128,-33.940052,0.6218292,21.0,8,-0.04357615
1.0966675,-3.4404585,-0.8336686,36.0,1,-0.043573845
1.2836003,-4.029335,-0.82200515,32.0,2,-0.043569237
1.4961454,-4.702207,-0.7815467,37.0,3,-0.043564633
1.8463559,-5.8098927,-0.74852157,48.0,4,-0.043560024
2.3333998,-7.346909,-0.6744111,40.0,5,-0.043555416
3.0473351,-9.606417,-0.5281745,46.0,6,-0.043550808
21.3276,-67.27384,16.293203,34.0,14,-0.043548502
4.4217553,-13.9560375,-0.25553814,27.0,7,-0.0435462
22.302147,-70.43322,19.796034,59.0,15,-0.043543894
0.9800104,-3.1081955,-0.8732555,43.0,0,-0.04352316
10.799135,-34.271347,0.6272046,26.0,8,-0.043520853
1.0817245,-3.4349718,-0.83141905,34.0,1,-0.04351855
22.54998,-71.65018,3.9366062,84.0,9,-0.04351625
1.266581,-4.0244274,-0.82009715,38.0,2,-0.043513943
22.47953,-71.46992,6.5548086,53.0,10,-0.04351164
1.4838696,-4.720592,-0.78373677,46.0,3,-0.043509334
18.545063,-59.032894,7.5975795,21.0,11,-0.043507032
1.8159552,-5.784106,-0.74437803,58.0,4,-0.043504726
2.3166869,-7.3835244,-0.6770258,42.0,5,-0.043500118
18.51784,-59.05435,12.030127,42.0,13,-0.043497816
3.0263264,-9.65702,-0.5303726,51.0,6,-0.04349551
21.217863,-67.74771,16.389933,17.0,14,-0.043493208
4.3957124,-14.043906,-0.25686452,26.0,7,-0.0434909
21.825464,-69.77315,19.58898,58.0,15,-0.0434886
0.9576654,-3.0747085,-0.8629027,41.0,0,-0.043467864
10.710942,-34.41003,0.62905455,26.0,8,-0.04346556
1.076095,-3.4591956,-0.836368,30.0,1,-0.043463256
1.2560225,-4.040073,-0.82238686,38.0,2,-0.043458648
1.4691398,-4.731403,-0.78467536,40.0,3,-0.04345404
18.336525,-59.089687,7.5966043,21.0,11,-0.043451734
1.8097075,-5.8318057,-0.7497403,60.0,4,-0.04344943
17.998968,-58.03766,9.624163,22.0,12,-0.043447126
2.2897203,-7.387759,-0.67667717,39.0,5,-0.043444823
17.934008,-57.899647,11.782074,41.0,13,-0.043442518
3.0156333,-9.741934,-0.5344549,51.0,6,-0.043440215
20.975803,-67.76185,16.376436,17.0,14,-0.04343791
4.3053813,-13.917038,-0.25428155,31.0,7,-0.043435607
21.593967,-69.84514,19.58898,58.0,15,-0.0434333
0.95883125,-3.1147943,-0.8732555,44.0,0,-0.043412566
10.652046,-34.625023,0.6323356,18.0,8,-0.043410264
1.0772172,-3.5037239,-0.84626585,44.0,1,-0.043407958
1.2495373,-4.0667357,-0.8269662,40.0,2,-0.04340335
1.4557602,-4.743802,-0.7859268,43.0,3,-0.04339874
1.7973434,-5.860549,-0.7526651,46.0,4,-0.043394133
18.064579,-58.93937,9.763701,24.0,12,-0.04339183
2.2570398,-7.3686423,-0.67423683,35.0,5,-0.043389525
2.982142,-9.748059,-0.5342455,53.0,6,-0.043384917
20.469929,-66.91233,16.154634,34.0,14,-0.043382615
4.2884393,-14.026855,-0.2560268,33.0,7,-0.043380313
0.942874,-3.0994747,-0.86807907,42.0,0,-0.04335727
10.591845,-34.839996,0.63561666,22.0,8,-0.043354966
1.0678585,-3.5147355,-0.8480655,41.0,1,-0.043352664
31.13808,-102.55186,5.6168003,52.0,9,-0.043350358
1.2303407,-4.052071,-0.82315004,41.0,2,-0.043348055
1.4480467,-4.7750688,-0.790307,46.0,3,-0.043343447
1.7803277,-5.8781857,-0.75412756,46.0,4,-0.04333884
17.69278,-58.453773,9.67297,22.0,12,-0.043336533
2.2447138,-7.4161315,-0.67789733,39.0,5,-0.04333423
17.691721,-58.48711,11.877479,41.0,13,-0.04333193
2.954423,-9.7731905,-0.5350829,51.0,6,-0.043329623
20.316835,-67.25015,16.218971,17.0,14,-0.04332732
4.294359,-14.223602,-0.25934276,37.0,7,-0.043325014
0.93149364,-3.100897,-0.8675615,39.0,0,-0.043301973
10.542036,-35.116165,0.6399798,18.0,8,-0.04329967
1.0561432,-3.520308,-0.84851533,47.0,1,-0.043297365
1.2246468,-4.08455,-0.82887435,42.0,2,-0.043292757
1.4495021,-4.84065,-0.80031884,42.0,3,-0.04328815
1.758661,-5.880561,-0.7536401,46.0,4,-0.043283544
17.593834,-58.86721,9.731163,23.0,12,-0.04328124
2.2387807,-7.490736,-0.6839983,39.0,5,-0.043278936
2.9105797,-9.750908,-0.53330344,51.0,6,-0.043274328
20.22679,-67.80618,16.335945,17.0,14,-0.043272022
4.234971,-14.205928,-0.2587494,30.0,7,-0.04326972
0.92505866,-3.1189463,-0.8717026,37.0,0,-0.04324668
10.44326,-35.233273,0.64144576,9.0,8,-0.043244373
1.0471692,-3.5351841,-0.85121477,43.0,1,-0.04324207
29.79891,-100.66395,5.50187,52.0,9,-0.043239765
1.2092668,-4.0850344,-0.82811105,42.0,2,-0.043237463
1.4281163,-4.8305254,-0.7978159,37.0,3,-0.043232854
18.621622,-63.02708,8.069458,30.0,11,-0.043230552
1.7386855,-5.888568,-0.75388384,45.0,4,-0.043228246
18.390072,-62.323418,10.291824,31.0,12,-0.043225944
