x,y,z,intensity,ring,time
2.4964268,-1.7590786,-0.48369545,46.0,3,-0.07308593
12.258044,-8.640692,1.8414459,4.0,11,-0.073083624
2.7936141,-1.9699478,-0.41971806,38.0,4,-0.07308132
27.193903,-19.183191,5.270903,5.0,12,-0.07307901
3.16497,-2.232641,-0.33886153,46.0,5,-0.07307671
48.803703,-34.439976,11.610728,40.0,13,-0.07307441
3.6059422,-2.5455978,-0.23132494,33.0,6,-0.073072106
43.24324,-30.53867,12.22204,7.0,14,-0.073069796
4.1092215,-2.9030352,-0.08782051,34.0,7,-0.073067494
41.48379,-29.317844,13.611295,47.0,15,-0.07306519
1.9246219,-1.3637172,-0.63203615,54.0,0,-0.07304446
4.8861074,-3.463399,0.104539916,48.0,8,-0.073042154
2.0458841,-1.4507122,-0.579024,48.0,1,-0.073039845
6.1251545,-4.344881,0.39356643,34.0,9,-0.07303754
2.2722375,-1.6118127,-0.54151595,47.0,2,-0.07303524
7.9845486,-5.6659384,0.8565666,33.0,10,-0.07303294
2.5096009,-1.7815034,-0.48744985,47.0,3,-0.07303063
12.169541,-8.642051,1.8326714,2.0,11,-0.073028326
2.7851021,-1.9785376,-0.4194743,35.0,4,-0.073026024
28.466455,-20.230053,5.5312104,11.0,12,-0.07302372
3.1669016,-2.2505994,-0.33990738,48.0,5,-0.07302141
3.642608,-2.5905807,-0.23425576,36.0,6,-0.07301681
43.28246,-30.793365,12.263432,7.0,14,-0.073014505
4.123501,-2.9347541,-0.08834408,36.0,7,-0.0730122
42.045315,-29.935305,13.829738,25.0,15,-0.07300989
1.9261394,-1.3749166,-0.6341067,55.0,0,-0.072963715
4.8853793,-3.4885678,0.10478425,54.0,8,-0.07296141
2.0598364,-1.4714377,-0.5844228,56.0,1,-0.07295911
6.1529675,-4.3953533,0.39628792,36.0,9,-0.0729568
2.2665975,-1.6197346,-0.54151595,45.0,2,-0.0729545
8.052248,-5.756344,0.8659795,33.0,10,-0.072952196
2.524255,-1.8051907,-0.49151716,50.0,3,-0.072949894
12.089252,-8.648673,1.8251154,12.0,11,-0.072947584
2.7797933,-1.9894029,-0.41971806,43.0,4,-0.07294528
28.577517,-20.45195,5.565939,17.0,12,-0.07294298
3.1671262,-2.2674394,-0.34077895,49.0,5,-0.07294068
3.622178,-2.5951378,-0.23352307,30.0,6,-0.072936065
45.1071,-32.329247,12.812312,8.0,14,-0.07293376
4.139752,-2.967051,-0.08890256,37.0,7,-0.07293146
41.930115,-30.06331,13.824561,25.0,15,-0.07292915
1.9181917,-1.379376,-0.6330714,56.0,0,-0.07290842
4.891643,-3.5175917,0.10516821,54.0,8,-0.072906114
2.0438719,-1.4702942,-0.5812735,45.0,1,-0.07290381
6.2251287,-4.479801,0.40194017,28.0,9,-0.07290151
2.2688966,-1.6333718,-0.543424,50.0,2,-0.0728992
7.973901,-5.7425003,0.8597042,33.0,10,-0.0728969
2.5342844,-1.8250953,-0.49464583,50.0,3,-0.072894596
13.969117,-10.063731,2.1139457,8.0,11,-0.07289229
2.784454,-2.0067341,-0.42142424,40.0,4,-0.07288998
28.565243,-20.594324,5.577515,17.0,12,-0.07288768
3.1446486,-2.267992,-0.33921015,48.0,5,-0.07288538
39.57723,-28.543997,9.485116,28.0,13,-0.07288308
3.6119323,-2.605966,-0.23341838,33.0,6,-0.07288077
43.735523,-31.566265,12.452391,8.0,14,-0.072878465
4.140719,-2.9896772,-0.0891469,34.0,7,-0.07287616
42.62048,-30.784115,14.087522,27.0,15,-0.07287386
1.912042,-1.3845962,-0.63255376,50.0,0,-0.072853126
4.86314,-3.5229142,0.104819156,54.0,8,-0.072850816
2.052929,-1.4877117,-0.5853227,45.0,1,-0.07284851
6.3169765,-4.5777717,0.40884852,34.0,9,-0.07284621
2.2682362,-1.6443436,-0.5445689,45.0,2,-0.07284391
7.982234,-5.788797,0.86266756,27.0,10,-0.0728416
2.5023155,-1.8153709,-0.48963994,49.0,3,-0.0728393
13.985316,-10.149742,2.1217456,16.0,11,-0.072836995
2.7453046,-1.9931166,-0.41654944,34.0,4,-0.07283469
28.88843,-20.973267,5.6541677,12.0,12,-0.07283238
3.130662,-2.2737243,-0.3385129,46.0,5,-0.07283008
39.343933,-28.58504,9.45306,28.0,13,-0.07282778
3.620586,-2.631475,-0.23456979,40.0,6,-0.07282548
44.854477,-32.61261,12.803314,8.0,14,-0.072823174
4.1437206,-3.0127997,-0.08942613,34.0,7,-0.072820865
1.9103189,-1.3935393,-0.6335891,56.0,0,-0.07279783
4.882126,-3.561413,0.10548234,49.0,8,-0.072795525
2.0700223,-1.5105934,-0.5916213,48.0,1,-0.072793216
6.3396745,-4.628057,0.41136068,33.0,9,-0.07279091
2.2688246,-1.6568828,-0.5460954,45.0,2,-0.07278861
7.9925466,-5.838955,0.8659795,33.0,10,-0.07278631
2.5074472,-1.8318157,-0.49183,47.0,3,-0.072784
14.095824,-10.301478,2.1436818,28.0,11,-0.0727817
2.7531025,-2.0127535,-0.4187431,33.0,4,-0.072779395
29.212063,-21.364344,5.7320724,12.0,12,-0.07277709
3.1227062,-2.2846386,-0.3385129,42.0,5,-0.07277479
39.23308,-28.703762,9.449244,28.0,13,-0.07277248
3.616675,-2.6470058,-0.2348838,41.0,6,-0.07277018
43.62185,-31.938057,12.481634,16.0,14,-0.072767876
4.1331787,-3.0272458,-0.08942613,34.0,7,-0.072765574
43.304432,-31.728886,14.384645,29.0,15,-0.072763264
1.9041302,-1.3987228,-0.6330714,54.0,0,-0.07274253
4.8954473,-3.5973785,0.10604082,49.0,8,-0.07274023
2.055316,-1.5108845,-0.58892184,48.0,1,-0.072737925
6.35888,-4.6761894,0.41366345,35.0,9,-0.072735615
2.2661898,-1.6671189,-0.5468586,46.0,2,-0.07273331
8.027706,-5.9055696,0.87190604,33.0,10,-0.07273101
2.5201297,-1.8546072,-0.49558446,45.0,3,-0.07272871
13.36918,-9.842211,2.0383868,2.0,11,-0.072726406
2.7396665,-2.017643,-0.41776815,38.0,4,-0.0727241
29.09914,-21.438063,5.7245636,6.0,12,-0.072721794
3.1403742,-2.3144374,-0.3413019,43.0,5,-0.07271949
45.23355,-33.349045,10.923816,36.0,13,-0.07271719
3.600519,-2.6555018,-0.23446509,41.0,6,-0.07271488
4.1225863,-3.0416548,-0.08942613,34.0,7,-0.072710276
42.515724,-31.37967,14.158955,27.0,15,-0.07270797
1.8974382,-1.4045427,-0.63255376,53.0,0,-0.07268723
4.932048,-3.6521888,0.107122876,51.0,8,-0.07268493
2.057594,-1.5242072,-0.5911713,47.0,1,-0.07268263
6.3513255,-4.7065997,0.41429147,37.0,9,-0.072680324
2.2695274,-1.6824286,-0.5491483,43.0,2,-0.07267802
8.076432,-5.987159,0.87957567,33.0,10,-0.07267571
2.5164888,-1.8661848,-0.4962102,47.0,3,-0.07267341
14.072766,-10.439931,2.1514816,40.0,11,-0.07267111
2.7577584,-2.0465987,-0.42166796,43.0,4,-0.072668806
29.638937,-22.00379,5.8465824,6.0,12,-0.072666496
3.149465,-2.338999,-0.3432193,37.0,5,-0.072664194
3.598777,-2.674637,-0.23498847,42.0,6,-0.07265959
43.102833,-32.034336,12.398402,8.0,14,-0.07265728
4.0857344,-3.0376546,-0.08886765,34.0,7,-0.07265498
43.283997,-32.19244,14.454009,29.0,15,-0.072652675
1.8953747,-1.4137981,-0.6335891,51.0,0,-0.07263194
4.9394636,-3.6857874,0.10757664,54.0,8,-0.07262964
2.0629253,-1.5398985,-0.5943207,56.0,1,-0.07262733
6.350864,-4.740688,0.4153382,41.0,9,-0.072625026
2.2652137,-1.6915153,-0.5495299,42.0,2,-0.072622724
8.124666,-6.0691853,0.8872454,33.0,10,-0.07262042
2.5096319,-1.8753959,-0.4962102,45.0,3,-0.07261811
14.016918,-10.478364,2.1488004,18.0,11,-0.07261581
2.795116,-2.0894926,-0.42849267,55.0,4,-0.07261351
30.697792,-22.95653,6.0712223,6.0,12,-0.072611205
3.1508534,-2.3571396,-0.3442652,37.0,5,-0.072608896
3.6150005,-2.7063346,-0.23666322,45.0,6,-0.07260429
42.98451,-32.17993,12.396603,16.0,14,-0.07260199
4.156736,-3.1130316,-0.0906478,36.0,7,-0.07259968
47.540596,-35.616703,15.916854,39.0,15,-0.07259738
1.8922204,-1.4212357,-0.6341067,47.0,0,-0.07257664
4.9639845,-3.729775,0.108379446,54.0,8,-0.07257434
2.0609229,-1.5490727,-0.5952205,52.0,1,-0.07257204
6.3909874,-4.803724,0.41900173,36.0,9,-0.07256973
2.265869,-1.7037374,-0.55105644,39.0,2,-0.072567426
8.166593,-6.1428027,0.89404356,38.0,10,-0.07256512
2.5128696,-1.8908339,-0.4980874,41.0,3,-0.07256282
14.134349,-10.639396,2.1721995,24.0,11,-0.07256051
2.7738976,-2.0880053,-0.426299,46.0,4,-0.07255821
30.807703,-23.198414,6.108141,6.0,12,-0.07255591
3.1398368,-2.3651776,-0.34391654,34.0,5,-0.072553605
3.596437,-2.711094,-0.23603518,48.0,6,-0.07254899
43.406647,-32.721134,12.549569,8.0,14,-0.07254669
4.114458,-3.1027188,-0.089949705,37.0,7,-0.07254439
47.57645,-35.8905,15.968617,39.0,15,-0.072542086
1.8936604,-1.4321641,-0.63617724,49.0,0,-0.072521344
4.961157,-3.7534547,0.108588874,51.0,8,-0.07251904
2.0480053,-1.5500183,-0.59297097,50.0,1,-0.07251674
6.366218,-4.819975,0.41847834,37.0,9,-0.07251444
2.2695978,-1.7183522,-0.5533461,46.0,2,-0.07251213
8.187472,-6.2011266,0.89857566,38.0,10,-0.072509825
2.4876919,-1.8848411,-0.49433297,45.0,3,-0.07250752
14.382171,-10.900845,2.2158287,20.0,11,-0.07250522
2.768174,-2.0988748,-0.42654276,50.0,4,-0.07250291
3.1363232,-2.3797362,-0.34443948,28.0,5,-0.07249831
43.208576,-32.785206,10.54296,34.0,13,-0.072496004
3.5858357,-2.7217977,-0.23593052,45.0,6,-0.0724937
43.33407,-32.90427,12.561717,16.0,14,-0.07249139
4.1386356,-3.1436725,-0.09071761,37.0,7,-0.07248909
1.8945445,-1.4437786,-0.6382478,54.0,0,-0.07246605
4.96711,-3.785294,0.10900773,47.0,8,-0.07246374
2.0425823,-1.5571578,-0.59297097,49.0,1,-0.07246144
6.371588,-4.859124,0.41994375,32.0,9,-0.07245914
2.274211,-1.7349948,-0.5560174,49.0,2,-0.07245684
8.209036,-6.264938,0.9034564,41.0,10,-0.07245453
2.5058882,-1.9131258,-0.49933887,49.0,3,-0.072452225
14.459213,-11.038918,2.2336216,30.0,11,-0.07244992
2.7766068,-2.1205735,-0.42898014,54.0,4,-0.07244762
35.02756,-26.761227,6.981671,9.0,12,-0.07244532
3.1359122,-2.3967185,-0.34531105,33.0,5,-0.07244301
43.022614,-32.89327,10.526933,34.0,13,-0.072440706
3.5631442,-2.725215,-0.23509313,50.0,6,-0.072438404
43.157463,-33.020245,12.545521,16.0,14,-0.0724361
4.1308126,-3.16053,-0.09078742,37.0,7,-0.07243379
35.454044,-27.136093,11.963135,30.0,15,-0.07243149
1.9063501,-1.4633225,-0.6439418,56.0,0,-0.072410755
4.99444,-3.8351398,0.10991526,47.0,8,-0.07240845
2.0414975,-1.568195,-0.5943207,47.0,1,-0.07240614
6.42428,-4.9348693,0.4245493,37.0,9,-0.07240384
2.2556868,-1.7333528,-0.5529645,47.0,2,-0.07240154
8.322965,-6.397982,0.91844714,38.0,10,-0.072399236
2.4929314,-1.9170445,-0.4980874,40.0,3,-0.072396934
14.500474,-11.154778,2.246296,40.0,11,-0.072394624
2.7672427,-2.1295252,-0.4287364,45.0,4,-0.07239232
35.16876,-27.064037,7.028601,19.0,12,-0.07239002
3.1227906,-2.4040043,-0.3447881,39.0,5,-0.07238772
3.5725963,-2.7522628,-0.23634921,40.0,6,-0.072383106
43.092876,-33.20995,12.560367,8.0,14,-0.0723808
4.1751924,-3.217653,-0.09200909,34.0,7,-0.0723785
43.813713,-33.77766,14.823603,32.0,15,-0.07237619
1.8935888,-1.4640598,-0.6413536,55.0,0,-0.07235546
5.008589,-3.872474,0.110508636,49.0,8,-0.072353154
2.0547838,-1.5892631,-0.5997195,48.0,1,-0.07235085
6.4307084,-4.975597,0.4261194,35.0,9,-0.07234855
2.2589378,-1.748426,-0.5552542,47.0,2,-0.07234624
8.2029085,-6.3513703,0.90763986,44.0,10,-0.07234394
2.4803128,-1.9204634,-0.49683592,45.0,3,-0.072341636
14.439863,-11.184567,2.2426398,22.0,11,-0.07233933
2.7711499,-2.147201,-0.43044254,50.0,4,-0.072337024
34.955418,-27.094664,7.0048237,9.0,12,-0.07233472
3.1112309,-2.412449,-0.34443948,39.0,5,-0.07233242
42.904774,-33.268368,10.553265,34.0,13,-0.07233012
3.5760748,-2.7738879,-0.23718657,32.0,6,-0.07232781
43.29197,-33.592793,12.650798,16.0,14,-0.072325505
4.1433997,-3.2162676,-0.09155533,36.0,7,-0.0723232
1.8871989,-1.4691442,-0.64083594,53.0,0,-0.072300166
5.0376387,-3.9231071,0.11145107,51.0,8,-0.072297856
2.0599847,-1.6048094,-0.6028688,46.0,1,-0.072295554
6.490495,-5.0581727,0.43124834,33.0,9,-0.07229325
2.2593215,-1.7607346,-0.5567807,52.0,2,-0.07229095
8.280794,-6.4557114,0.91862154,33.0,10,-0.07228864
2.4424407,-1.9048134,-0.49057853,49.0,3,-0.07228634
14.489946,-11.304503,2.256533,34.0,11,-0.072284035
2.7777221,-2.1678529,-0.4326362,57.0,4,-0.07228173
34.789,-27.160595,6.9904313,19.0,12,-0.07227942
3.1090722,-2.4281993,-0.34513673,38.0,5,-0.07227712
3.6120126,-2.8220136,-0.24022207,31.0,6,-0.07227252
43.361763,-33.89011,12.705686,17.0,14,-0.07227021
4.157353,-3.250418,-0.0921138,36.0,7,-0.072267905
1.8863618,-1.4796283,-0.6423889,54.0,0,-0.07224487
5.027061,-3.9431362,0.11152088,47.0,8,-0.072242565
2.0528374,-1.6107874,-0.60241896,45.0,1,-0.072240256
6.5042205,-5.1054616,0.43334177,42.0,9,-0.07223795
2.268294,-1.7811282,-0.5605969,47.0,2,-0.07223565
8.25081,-6.4810953,0.9179243,33.0,10,-0.07223335
2.4634006,-1.9357218,-0.4962102,45.0,3,-0.07223104
14.659552,-11.519367,2.2891939,26.0,11,-0.07222874
2.7795022,-2.1848967,-0.43409866,58.0,4,-0.072226435
34.846157,-27.401531,7.021093,19.0,12,-0.07222413
3.1005774,-2.4390376,-0.34513673,39.0,5,-0.07222182
3.6267548,-2.8549995,-0.24189681,30.0,6,-0.07221722
43.609295,-34.34178,12.815012,26.0,14,-0.07221492
4.1554084,-3.2723331,-0.092323236,39.0,7,-0.072212614
48.02841,-37.83537,16.382729,41.0,15,-0.072210304
1.8902808,-1.4933895,-0.64549476,47.0,0,-0.07218957
5.06121,-3.9999723,0.11260293,45.0,8,-0.07218727
2.0622065,-1.6303864,-0.606918,65.0,1,-0.072184965
6.547463,-5.1764426,0.43742397,40.0,9,-0.072182655
2.2651427,-1.791471,-0.5613601,46.0,2,-0.07218035
8.332823,-6.592682,0.9296031,38.0,10,-0.07217805
2.4535306,-1.9418571,-0.49558446,43.0,3,-0.07217575
14.626572,-11.580413,2.2906563,38.0,11,-0.07217344
2.7636945,-2.188907,-0.43287995,59.0,4,-0.07217114
34.79985,-27.562244,7.0311046,19.0,12,-0.072168835
3.1217155,-2.4733543,-0.34844866,29.0,5,-0.07216653
3.6402426,-2.886255,-0.2434669,33.0,6,-0.07216192
43.557858,-34.548294,12.835258,17.0,14,-0.07215962
4.1690273,-3.3067002,-0.0928817,36.0,7,-0.072157316
1.8986613,-1.5108044,-0.65015346,50.0,0,-0.07213427
5.123027,-4.0764995,0.11427836,45.0,8,-0.07213197
2.0583131,-1.6384296,-0.6073678,54.0,1,-0.07212967
6.574664,-5.235347,0.44045946,45.0,9,-0.072127365
2.2465906,-1.7895812,-0.5583072,46.0,2,-0.07212506
8.350272,-6.6540127,0.9341352,46.0,10,-0.07212275
2.456347,-1.957369,-0.49746165,45.0,3,-0.07212045
14.800748,-11.798373,2.3240488,20.0,11,-0.07211815
2.7579727,-2.1992972,-0.43312368,50.0,4,-0.072115846
34.78064,-27.745146,7.0467477,29.0,12,-0.07211354
3.1286361,-2.4966633,-0.35019177,45.0,5,-0.072111234
3.6493816,-2.9132628,-0.24472295,39.0,6,-0.07210663
42.94359,-34.293686,12.68769,17.0,14,-0.07210432
4.1574593,-3.321233,-0.0928817,36.0,7,-0.07210202
1.8936406,-1.5170925,-0.65015346,50.0,0,-0.07207898
5.1415343,-4.120619,0.11501136,49.0,8,-0.07207668
2.0541022,-1.6468234,-0.60781777,48.0,1,-0.07207437
6.570371,-5.2695103,0.44140148,40.0,9,-0.07207207
2.2345176,-1.7921078,-0.5567807,49.0,2,-0.072069764
8.332824,-6.6854067,0.9346582,33.0,10,-0.07206746
2.458743,-1.9733497,-0.49933887,45.0,3,-0.07206515
15.022621,-12.061238,2.3654842,20.0,11,-0.07206285
2.753374,-2.2113972,-0.43361115,46.0,4,-0.07206055
34.695896,-27.876278,7.0492506,29.0,12,-0.072058246
3.1028194,-2.4938395,-0.34827435,40.0,5,-0.072055936
3.662538,-2.9447563,-0.24629304,35.0,6,-0.07205133
42.835766,-34.453148,12.691289,25.0,14,-0.07204903
4.144283,-3.3344717,-0.0928468,34.0,7,-0.07204672
1.8835579,-1.5203825,-0.6486005,49.0,0,-0.07202368
5.1769123,-4.1787333,0.11612831,45.0,8,-0.07202138
2.0619864,-1.665002,-0.61186683,46.0,1,-0.07201908
6.5612593,-5.299944,0.4420295,33.0,9,-0.07201677
2.2462585,-1.8150928,-0.5613601,47.0,2,-0.072014466
8.469408,-6.846163,0.9527865,33.0,10,-0.07201216
2.4729981,-1.9997374,-0.50371903,51.0,3,-0.07200986
15.060695,-12.178511,2.3781586,26.0,11,-0.07200755
2.7811356,-2.2497087,-0.43921715,48.0,4,-0.07200525
34.676693,-28.060595,7.065207,19.0,12,-0.07200295
3.1095815,-2.5171907,-0.35001746,56.0,5,-0.072000645
3.6532726,-2.9594176,-0.2463977,39.0,6,-0.07199603
43.864403,-35.546055,13.034564,9.0,14,-0.07199373
4.145047,-3.3589897,-0.09312604,33.0,7,-0.07199143
1.8782393,-1.5269482,-0.6486005,48.0,0,-0.071968384
5.20345,-4.2317457,0.11707074,57.0,8,-0.07196608
2.043777,-1.6627098,-0.60826766,47.0,1,-0.07196378
6.5318747,-5.313991,0.44129682,33.0,9,-0.07196148
2.2520907,-1.8328366,-0.5644131,45.0,2,-0.07195917
8.647867,-7.04047,0.97562134,44.0,10,-0.071956865
2.4721293,-2.0133471,-0.5049705,55.0,3,-0.07195456
15.103678,-12.305096,2.3920517,24.0,11,-0.07195226
2.7867203,-2.2711742,-0.4414108,38.0,4,-0.07194995
34.577,-28.18022,7.064894,29.0,12,-0.07194765
3.114674,-2.539361,-0.35158628,57.0,5,-0.07194535
34.569553,-28.194239,8.671124,22.0,13,-0.071943045
3.6785133,-3.0011914,-0.24880517,60.0,6,-0.071940735
47.42985,-38.710415,14.134125,11.0,14,-0.07193843
4.1363955,-3.3759665,-0.09319585,34.0,7,-0.07193613
1.8803717,-1.5396143,-0.65118873,46.0,0,-0.07191309
5.218786,-4.2730474,0.11773393,57.0,8,-0.07191078
2.0382519,-1.6694783,-0.60826766,47.0,1,-0.07190848
6.5611773,-5.3760004,0.44454166,35.0,9,-0.07190618
2.2426424,-1.8381977,-0.56364983,46.0,2,-0.07190388
8.740331,-7.1666236,0.9888691,38.0,10,-0.07190157
2.470022,-2.0252914,-0.50590914,59.0,3,-0.071899265
15.150275,-12.426872,2.4059448,32.0,11,-0.07189696
2.788381,-2.287958,-0.4428732,39.0,4,-0.07189466
34.52423,-28.338346,7.0742807,29.0,12,-0.07189235
3.1211889,-2.5628612,-0.3533294,53.0,5,-0.07189005
34.457657,-28.293768,8.666545,22.0,13,-0.07188775
3.657738,-3.0044994,-0.24807246,41.0,6,-0.071885444
47.358437,-38.914505,14.151221,11.0,14,-0.07188314
4.1632056,-3.4221303,-0.094068475,37.0,7,-0.07188083
1.8797276,-1.5495279,-0.6527417,49.0,0,-0.071857795
5.2624645,-4.3395834,0.11906032,52.0,8,-0.07185549
2.0324118,-1.6765829,-0.60826766,43.0,1,-0.07185318
6.577801,-5.428108,0.4469491,45.0,9,-0.07185088
2.2289634,-1.8393767,-0.5617417,51.0,2,-0.07184858
8.782586,-7.250109,0.9963644,49.0,10,-0.07184628
2.4659836,-2.0364168,-0.5065349,60.0,3,-0.07184397
15.218525,-12.571973,2.4237378,18.0,11,-0.071841665
2.7803776,-2.2976773,-0.4428732,38.0,4,-0.07183936
34.504272,-28.524132,7.0905495,29.0,12,-0.07183706
3.113759,-2.5750103,-0.3535037,53.0,5,-0.07183476
34.349606,-28.406368,8.664255,44.0,13,-0.07183245
3.6472278,-3.017249,-0.24807246,35.0,6,-0.071830146
46.04528,-38.105507,13.798498,10.0,14,-0.071827844
4.1589365,-3.443017,-0.09424299,34.0,7,-0.07182554
1.8814665,-1.5625783,-0.6553298,56.0,0,-0.0718025
5.301126,-4.4026427,0.12028199,57.0,8,-0.071800195
2.0325427,-1.6886483,-0.61006725,44.0,1,-0.07179789
6.6310077,-5.511036,0.4518687,40.0,9,-0.07179559
2.2237163,-1.8487887,-0.5621233,48.0,2,-0.07179328
8.789654,-7.3102784,1.0001993,52.0,10,-0.07179098
2.4706514,-2.0555484,-0.5090378,61.0,3,-0.071788676
15.479749,-12.878942,2.4724853,18.0,11,-0.071786374
2.7875981,-2.3200674,-0.44531062,38.0,4,-0.071784064
34.465218,-28.694958,7.103064,19.0,12,-0.07178176
3.1139374,-2.5935142,-0.35454956,47.0,5,-0.07177946
34.335762,-28.60748,8.687153,45.0,13,-0.07177716
3.677569,-3.065122,-0.2508986,44.0,6,-0.07177485
34.374348,-28.659962,10.332452,30.0,14,-0.071772546
4.1868258,-3.4908082,-0.095150515,34.0,7,-0.07177024
1.8478459,-1.545587,-0.64549476,47.0,0,-0.071747206
5.315627,-4.447707,0.12098008,64.0,8,-0.0717449
2.039789,-1.7073438,-0.6141164,56.0,1,-0.071742594
6.6597657,-5.576333,0.45521817,40.0,9,-0.07174029
2.2187543,-1.8578001,-0.56250495,50.0,2,-0.07173799
8.811432,-7.380575,1.005603,38.0,10,-0.07173568
2.4574046,-2.0590854,-0.50778633,52.0,3,-0.07173338
15.610438,-13.08479,2.501003,20.0,11,-0.071731076
2.7760336,-2.327718,-0.44482315,39.0,4,-0.07172877
34.56867,-28.996275,7.14624,10.0,12,-0.071726464
3.1044106,-2.6049097,-0.35454956,47.0,5,-0.07172416
34.18155,-28.681725,8.673414,45.0,13,-0.07172186
3.668377,-3.0792246,-0.25100327,39.0,6,-0.07171956
34.19948,-28.717117,10.309957,25.0,14,-0.07171725
4.2352505,-3.5575778,-0.09654671,37.0,7,-0.071714945
34.088383,-28.644127,11.930523,46.0,15,-0.07171264
1.8451232,-1.554839,-0.64653003,47.0,0,-0.07169191
5.330652,-4.492007,0.12167817,57.0,8,-0.071689606
2.0129573,-1.6968695,-0.60781777,44.0,1,-0.071687296
6.6891193,-5.6407475,0.45856768,46.0,9,-0.071684994
2.222435,-1.874781,-0.56517625,54.0,2,-0.07168269
8.842183,-7.461649,1.0122267,38.0,10,-0.07168039
2.4483318,-2.0668044,-0.50747347,55.0,3,-0.07167808
15.444834,-13.038041,2.4817474,14.0,11,-0.07167578
2.7876077,-2.354044,-0.44799173,50.0,4,-0.071673475
44.06151,-37.22168,9.135461,17.0,12,-0.07167117
3.1272562,-2.6427364,-0.3582101,41.0,5,-0.07166886
33.998234,-28.740908,8.65357,44.0,13,-0.07166656
3.6311405,-3.0707245,-0.24922384,28.0,6,-0.07166426
33.985386,-28.750393,10.277114,41.0,14,-0.07166196
4.2166996,-3.5671737,-0.09640709,37.0,7,-0.071659654
33.995564,-28.769182,11.933111,30.0,15,-0.071657345
1.8738394,-1.5896934,-0.6584357,50.0,0,-0.071615696
5.382025,-4.5675197,0.12321399,47.0,8,-0.07161339
2.0070217,-1.7038857,-0.60781777,48.0,1,-0.07161109
6.722672,-5.709314,0.46223122,43.0,9,-0.07160878
2.220695,-1.8859531,-0.56632113,51.0,2,-0.07160648
8.8933115,-7.5554285,1.0209423,44.0,10,-0.07160418
2.4489906,-2.081308,-0.5090378,52.0,3,-0.071601875
15.444602,-13.130448,2.4890597,12.0,11,-0.071599565
2.7748373,-2.3599017,-0.44726053,47.0,4,-0.07159726
44.13593,-37.54934,9.178011,17.0,12,-0.07159496
3.098748,-2.6363087,-0.35594404,42.0,5,-0.07159266
34.08813,-29.01127,8.700891,22.0,13,-0.07159035
3.6422284,-3.1008759,-0.25068927,30.0,6,-0.07158805
33.86464,-28.841452,10.269465,45.0,14,-0.071585745
4.222488,-3.5974333,-0.09682595,35.0,7,-0.07158344
1.8682787,-1.5962248,-0.6584357,52.0,0,-0.0715604
5.4283733,-4.639547,0.124645084,57.0,8,-0.071558096
2.018836,-1.7260776,-0.6132166,56.0,1,-0.07155579
6.7512717,-5.774287,0.46558073,45.0,9,-0.07155349
2.2111142,-1.8911412,-0.5655579,55.0,2,-0.07155118
8.950149,-7.657666,1.0305295,49.0,10,-0.07154888
2.4537165,-2.1001198,-0.5115408,51.0,3,-0.07154658
15.5419235,-13.30693,2.5122147,8.0,11,-0.071544275
2.7530136,-2.3579516,-0.44506687,42.0,4,-0.071541965
44.81763,-38.399788,9.347586,18.0,12,-0.07153966
3.1076825,-2.6626654,-0.3580358,53.0,5,-0.07153736
43.982906,-37.697906,11.26002,37.0,13,-0.07153506
3.6632228,-3.140871,-0.25288737,39.0,6,-0.07153275
33.731216,-28.931578,10.259567,25.0,14,-0.07153045
4.247846,-3.6447039,-0.09769857,32.0,7,-0.071528144
33.192863,-28.489944,11.72088,14.0,15,-0.07152584
1.8451229,-1.5876166,-0.65222406,51.0,0,-0.07150511
5.440942,-4.683253,0.12530828,59.0,8,-0.0715028
2.021659,-1.7407435,-0.615916,42.0,1,-0.071500495
6.777492,-5.835739,0.46872085,55.0,9,-0.07149819
2.2015245,-1.8962853,-0.56479466,56.0,2,-0.07149589
8.985247,-7.7421846,1.0376762,41.0,10,-0.07149358
2.447867,-2.1099615,-0.51185364,55.0,3,-0.07149128
15.462306,-13.3325815,2.5068526,4.0,11,-0.07148898
2.7492757,-2.3714368,-0.4457981,49.0,4,-0.071486674
44.77082,-38.61787,9.364481,18.0,12,-0.071484365
3.098369,-2.673497,-0.3580358,42.0,5,-0.07148206
43.88077,-37.87686,11.267653,38.0,13,-0.07147976
3.6628187,-3.162776,-0.25362006,35.0,6,-0.07147746
33.68901,-29.1001,10.277564,20.0,14,-0.071475156
4.238763,-3.6613848,-0.09776838,35.0,7,-0.071472846
33.343777,-28.812054,11.807843,29.0,15,-0.071470544
1.8541697,-1.6066986,-0.6574004,52.0,0,-0.07144981
5.43596,-4.710437,0.12555261,59.0,8,-0.07144751
2.0188203,-1.7499907,-0.6168158,41.0,1,-0.0714452
6.781223,-5.880298,0.47039565,51.0,9,-0.071442895
2.208239,-1.9155369,-0.5682292,60.0,2,-0.07144059
9.033408,-7.8387923,1.0463918,46.0,10,-0.07143829
2.430413,-2.1090047,-0.5096635,52.0,3,-0.07143598
16.190033,-14.053947,2.6323779,13.0,11,-0.07143368
2.7593827,-2.3961592,-0.44872296,52.0,4,-0.071431376
44.865402,-38.97341,9.4126625,19.0,12,-0.071429074
3.1642132,-2.7496388,-0.36675134,47.0,5,-0.07142677
44.323982,-38.516663,11.414195,38.0,13,-0.07142446
3.6673841,-3.1880083,-0.25466678,38.0,6,-0.07142216
45.300526,-39.39303,13.859684,10.0,14,-0.07141986
4.251605,-3.6984699,-0.09836176,32.0,7,-0.071417555
33.24883,-28.933342,11.809914,29.0,15,-0.071415246
1.8488315,-1.6128385,-0.6574004,51.0,0,-0.07139451
5.4466047,-4.7530503,0.1261809,57.0,8,-0.07139221
2.0112314,-1.7557456,-0.6163659,43.0,1,-0.071389906
6.829857,-5.9643636,0.47521055,45.0,9,-0.0713876
2.2092686,-1.9293057,-0.5701373,56.0,2,-0.071385294
9.077886,-7.9303117,1.0545845,52.0,10,-0.07138299
2.4468355,-2.1382737,-0.5146695,51.0,3,-0.07138069
16.402418,-14.339017,2.6750324,19.0,11,-0.07137839
2.742036,-2.3979359,-0.44726053,46.0,4,-0.07137608
3.1790707,-2.7811065,-0.36954033,43.0,5,-0.07137147
3.651725,-3.1968439,-0.25435278,45.0,6,-0.07136686
45.151016,-39.540646,13.856086,10.0,14,-0.07136456
4.2732644,-3.7435951,-0.099164575,30.0,7,-0.07136226
32.982,-28.904076,11.750902,29.0,15,-0.071359955
1.854801,-1.6294824,-0.6615415,50.0,0,-0.07133921
5.4389925,-4.779954,0.12639034,61.0,8,-0.07133691
1.9948453,-1.7537487,-0.6132166,39.0,1,-0.07133461
6.834492,-6.010591,0.47698995,36.0,9,-0.071332306
2.2010462,-1.9357091,-0.5697557,53.0,2,-0.07133
9.166828,-8.064601,1.0681808,49.0,10,-0.071327694
2.4363906,-2.1441915,-0.51404375,52.0,3,-0.07132539
16.581718,-14.598191,2.712568,25.0,11,-0.07132309
2.7366285,-2.4101171,-0.447748,49.0,4,-0.07132079
45.05764,-39.695705,9.510904,20.0,12,-0.07131848
3.1917677,-2.811942,-0.37215498,35.0,5,-0.071316175
3.6345513,-3.2042875,-0.2539341,39.0,6,-0.07131157
46.032875,-40.597717,14.170117,11.0,14,-0.07130926
4.251173,-3.7505512,-0.09895514,30.0,7,-0.07130696
32.928703,-29.061214,11.767985,29.0,15,-0.07130466
1.8577828,-1.6436275,-0.66464734,50.0,0,-0.07128392
5.4507256,-4.824091,0.12705351,54.0,8,-0.07128162
1.994548,-1.7658684,-0.6150162,39.0,1,-0.07127931
6.8837423,-6.0966487,0.4819095,45.0,9,-0.07127701
2.2030942,-1.9511904,-0.5720454,44.0,2,-0.071274705
9.198273,-8.149401,1.0751532,49.0,10,-0.0712724
2.464371,-2.1841278,-0.52155256,52.0,3,-0.07127009
16.539574,-14.663883,2.7140305,17.0,11,-0.07126779
2.728199,-2.419655,-0.447748,49.0,4,-0.07126549
3.1471667,-2.793203,-0.36814582,32.0,5,-0.07126088
44.235374,-39.260197,11.496624,39.0,13,-0.071258575
3.6412666,-3.2328677,-0.25519016,39.0,6,-0.07125627
45.683983,-40.574398,14.106231,11.0,14,-0.07125397
4.308316,-3.8277922,-0.100595675,27.0,7,-0.07125166
32.860275,-29.205494,11.779891,14.0,15,-0.07124936
1.8517462,-1.6504254,-0.66464734,50.0,0,-0.07122862
5.44281,-4.851071,0.12726295,57.0,8,-0.07122632
2.0072808,-1.7896793,-0.6208649,43.0,1,-0.07122402
6.9011726,-6.1552057,0.484631,51.0,9,-0.07122171
2.2032528,-1.9657873,-0.5739535,48.0,2,-0.07121941
9.229287,-8.2374525,1.0823,35.0,10,-0.071217105
2.4592962,-2.1957772,-0.5221783,51.0,3,-0.0712148
16.899939,-15.089071,2.7817898,18.0,11,-0.07121249
2.7315803,-2.439742,-0.4496979,45.0,4,-0.07121019
3.1745353,-2.8373654,-0.37250364,43.0,5,-0.071205586
43.97995,-39.322613,11.467621,39.0,13,-0.07120328
3.6547005,-3.2688274,-0.25696957,33.0,6,-0.071200974
4.3068504,-3.8534746,-0.10087491,27.0,7,-0.07119637
1.8402232,-1.6517177,-0.6625768,50.0,0,-0.071173325
5.4711194,-4.912403,0.128345,65.0,8,-0.07117102
2.0195549,-1.8139527,-0.62671363,48.0,1,-0.07116872
6.875187,-6.1752534,0.484317,46.0,9,-0.07116642
2.1876152,-1.9655931,-0.57166374,46.0,2,-0.07116411
9.354584,-8.408134,1.1004283,38.0,10,-0.07116181
2.4369276,-2.1911407,-0.5190496,49.0,3,-0.071159504
16.611328,-14.941163,2.743279,15.0,11,-0.0711572
2.7432792,-2.4683263,-0.45311025,43.0,4,-0.07115489
45.57048,-41.00305,9.709263,23.0,12,-0.07115259
3.1631312,-2.8470964,-0.37232932,42.0,5,-0.07115029
43.760715,-39.40233,11.446251,38.0,13,-0.071147986
3.6714644,-3.3069618,-0.25895834,45.0,6,-0.07114568
44.865494,-40.425438,13.942467,11.0,14,-0.071143374
4.230978,-3.8122647,-0.0994089,22.0,7,-0.07114107
44.534252,-40.14106,16.0649,40.0,15,-0.07113877
1.8358793,-1.6594266,-0.6630944,48.0,0,-0.071118034
5.4815016,-4.9546556,0.12897329,67.0,8,-0.071115725
2.017865,-1.8245606,-0.6280633,43.0,1,-0.07111342
6.8609967,-6.205914,0.48484036,55.0,9,-0.07111112
2.1923866,-1.9837555,-0.5747167,47.0,2,-0.07110882
9.390171,-8.499567,1.1080981,38.0,10,-0.07110651
2.4296482,-2.1992097,-0.5190496,48.0,3,-0.071104206
16.527843,-14.96552,2.737673,12.0,11,-0.071101904
2.7424352,-2.4840732,-0.45432895,40.0,4,-0.0710996
3.1502209,-2.8554444,-0.3719807,43.0,5,-0.07109499
43.67636,-39.589417,11.458462,39.0,13,-0.07109269
3.664917,-3.3231435,-0.25927237,35.0,6,-0.071090385
44.415085,-40.287266,13.843938,21.0,14,-0.07108808
4.3257523,-3.9251044,-0.10195696,30.0,7,-0.07108577
44.333782,-40.24174,16.043158,40.0,15,-0.07108347
1.8360821,-1.670706,-0.665165,47.0,0,-0.071062736
5.465653,-4.9751043,0.12900819,70.0,8,-0.071060434
2.0143657,-1.8342174,-0.6289632,47.0,1,-0.071058124
6.889112,-6.2730064,0.48829454,46.0,9,-0.07105582
2.206116,-2.0095236,-0.5800594,55.0,2,-0.07105352
9.437041,-8.599098,1.1169881,49.0,10,-0.07105122
2.4263363,-2.2116694,-0.51998824,46.0,3,-0.071048915
16.512177,-15.056562,2.7437668,2.0,11,-0.071046606
2.7381475,-2.4976442,-0.45506018,43.0,4,-0.0710443
3.1466217,-2.8712468,-0.37267792,50.0,5,-0.0710397
3.656244,-3.3386092,-0.2594817,38.0,6,-0.07103509
44.269867,-40.438114,13.842588,32.0,14,-0.071032785
4.382105,-4.0028143,-0.103597485,27.0,7,-0.07103048
44.279953,-40.46151,16.072145,40.0,15,-0.07102817
1.8387847,-1.6849357,-0.66827077,47.0,0,-0.07100744
5.488931,-5.029679,0.12995063,57.0,8,-0.071005136
2.0010893,-1.834303,-0.62671363,45.0,1,-0.07100283
6.9496083,-6.3726068,0.49415615,50.0,9,-0.07100053
2.1860669,-2.005268,-0.5766248,52.0,2,-0.07099822
9.578723,-8.789592,1.1373824,35.0,10,-0.07099592
2.4335432,-2.233059,-0.5231169,46.0,3,-0.07099362
17.329353,-15.9072695,2.8883038,24.0,11,-0.070991315
2.75032,-2.5255072,-0.4584725,45.0,4,-0.070989005
49.65272,-45.61006,10.678531,37.0,12,-0.0709867
3.142449,-2.887606,-0.3733752,42.0,5,-0.0709844
44.92088,-41.277927,11.858398,41.0,13,-0.0709821
3.6716206,-3.3750455,-0.2613658,33.0,6,-0.07097979
44.494144,-40.91446,13.955064,11.0,14,-0.07097749
4.4122577,-4.0587006,-0.10464463,27.0,7,-0.070975184
44.405704,-40.86175,16.169462,40.0,15,-0.07097288
1.8374473,-1.6949538,-0.6698237,46.0,0,-0.07095215
5.5315948,-5.1044087,0.13138172,47.0,8,-0.07094984
2.0089936,-1.8544953,-0.63121265,39.0,1,-0.070947535
7.0825334,-6.537863,0.5051467,31.0,9,-0.07094523
2.1967137,-2.0284889,-0.58120424,48.0,2,-0.07094293
9.568549,-8.838883,1.1396484,33.0,10,-0.07094062
2.4344385,-2.249584,-0.52499413,43.0,3,-0.07093832
17.346605,-16.035038,2.9004905,24.0,11,-0.07093602
2.7385728,-2.532397,-0.457985,43.0,4,-0.070933715
47.13717,-43.58841,10.168555,29.0,12,-0.070931405
3.1372435,-2.9020696,-0.37389815,38.0,5,-0.0709291
44.920612,-41.567825,11.89656,41.0,13,-0.0709268
3.6700761,-3.3973384,-0.2620985,43.0,6,-0.0709245
44.74855,-41.437614,14.080136,11.0,14,-0.07092219
4.4222503,-4.095049,-0.10520311,28.0,7,-0.070919886
44.853855,-41.549664,16.382729,41.0,15,-0.070917584
1.8315196,-1.7013575,-0.6698237,45.0,0,-0.07089685
5.5600557,-5.1649146,0.13246377,55.0,8,-0.07089455
2.0142531,-1.8717594,-0.6348119,36.0,1,-0.07089224
7.2030277,-6.6958094,0.5154045,33.0,9,-0.070889935
2.2140603,-2.0588725,-0.5876917,55.0,2,-0.07088763
9.649965,-8.976721,1.1530704,44.0,10,-0.07088533
2.429858,-2.2603352,-0.52561986,43.0,3,-0.07088302
17.46918,-16.256104,2.9299831,28.0,11,-0.07088072
2.7490485,-2.559048,-0.46115363,48.0,4,-0.07087842
3.138757,-2.923867,-0.37529263,40.0,5,-0.070873804
3.6397948,-3.3917892,-0.26073778,35.0,6,-0.0708692
4.3625917,-4.068183,-0.10412105,21.0,7,-0.070864595
1.8329226,-1.7140188,-0.67241186,48.0,0,-0.07084155
5.5565963,-5.1979523,0.13281281,55.0,8,-0.07083925
1.9934781,-1.8654639,-0.63031286,41.0,1,-0.07083695
7.216063,-6.755035,0.51802135,40.0,9,-0.07083464
2.214387,-2.0729117,-0.58959985,54.0,2,-0.070832334
9.705948,-9.089022,1.1633549,55.0,10,-0.07083003
2.4277198,-2.2742054,-0.5268714,40.0,3,-0.07082773
17.561522,-16.456793,2.9550881,23.0,11,-0.07082542
2.7487888,-2.576774,-0.4626161,46.0,4,-0.07082312
3.1610174,-2.964243,-0.3791275,37.0,5,-0.07081851
3.6293895,-3.4058404,-0.26084244,37.0,6,-0.0708139
46.32387,-43.485794,14.668608,39.0,14,-0.0708116
4.4168777,-4.147724,-0.10576159,21.0,7,-0.0708093
1.8395864,-1.7323264,-0.6770707,51.0,0,-0.07078625
5.5791736,-5.2557096,0.13379015,42.0,8,-0.07078395
1.9670991,-1.8537003,-0.62401426,48.0,1,-0.07078165
7.2331324,-6.8185425,0.52095217,40.0,9,-0.070779346
2.2185664,-2.0914023,-0.5926528,51.0,2,-0.07077704
9.827812,-9.26774,1.1818318,52.0,10,-0.070774734
2.4312615,-2.2935095,-0.5293743,39.0,3,-0.07077243
17.61225,-16.620173,2.9733684,25.0,11,-0.07077013
2.7368903,-2.583628,-0.4621286,48.0,4,-0.07076783
3.1361654,-2.9615796,-0.37738436,41.0,5,-0.070763215
44.418835,-41.960766,11.877479,41.0,13,-0.07076091
3.5782852,-3.3814504,-0.2580163,34.0,6,-0.07075861
46.151966,-43.62849,14.662309,13.0,14,-0.0707563
4.444507,-4.2029614,-0.10677383,14.0,7,-0.070754
45.117996,-42.68089,16.641548,43.0,15,-0.0707517
1.8307245,-1.7360786,-0.6760354,45.0,0,-0.07073096
5.5985146,-5.310934,0.13469768,32.0,8,-0.07072866
1.9860607,-1.8847011,-0.6321125,50.0,1,-0.07072635
7.264331,-6.8960023,0.5249297,37.0,9,-0.07072405
2.2055569,-2.0937269,-0.59112626,54.0,2,-0.070721745
9.863304,-9.366472,1.1900245,46.0,10,-0.07071944
2.440427,-2.3183084,-0.53312874,45.0,3,-0.07071713
17.870703,-16.982391,3.0269911,12.0,11,-0.07071483
2.7235389,-2.5890627,-0.46139738,45.0,4,-0.07071253
3.1431339,-2.9889839,-0.3794761,38.0,5,-0.07070792
44.983315,-42.79214,12.068288,43.0,13,-0.070705615
3.601184,-3.4269645,-0.26052842,35.0,6,-0.07070331
46.165947,-43.947876,14.715398,13.0,14,-0.07070101
4.510904,-4.2956753,-0.1087285,13.0,7,-0.0706987
1.821859,-1.73979,-0.6750001,45.0,0,-0.07067566
5.62332,-5.371884,0.13574483,37.0,8,-0.07067336
1.9851052,-1.8970077,-0.6339121,56.0,1,-0.07067106
7.2676463,-6.9475403,0.5269185,43.0,9,-0.07066875
2.188301,-2.0919166,-0.58845496,48.0,2,-0.07066645
9.951506,-9.516513,1.2046666,38.0,10,-0.070664145
2.4551585,-2.3486612,-0.53813463,45.0,3,-0.07066184
18.119667,-17.339746,3.0793948,25.0,11,-0.07065953
2.7259564,-2.6095357,-0.4633473,43.0,4,-0.07065723
3.1355593,-3.0026934,-0.37982473,37.0,5,-0.07065263
44.266586,-42.40566,11.915641,42.0,13,-0.07065032
3.6353443,-3.4837348,-0.26387793,42.0,6,-0.070648015
45.712616,-43.821514,14.61957,25.0,14,-0.07064571
4.4641294,-4.280946,-0.10796059,12.0,7,-0.07064341
33.816692,-32.440372,12.556348,17.0,15,-0.0706411
1.810205,-1.7407824,-0.6729295,46.0,0,-0.070620365
5.623269,-5.4095025,0.13619858,37.0,8,-0.07061806
1.9742588,-1.8998716,-0.63256234,45.0,1,-0.07061576
7.2476664,-6.977022,0.52723247,50.0,9,-0.07061346
2.1739137,-2.0927348,-0.5865469,50.0,2,-0.07061115
9.985677,-9.616147,1.2128593,33.0,10,-0.07060885
2.4512131,-2.3613286,-0.5390732,50.0,3,-0.070606545
17.837473,-17.189386,3.0416155,6.0,11,-0.07060424
2.7225475,-2.6245458,-0.46432224,43.0,4,-0.07060193
47.92598,-46.21696,10.545249,35.0,12,-0.07059963
3.130268,-3.019699,-0.38052195,41.0,5,-0.07059733
44.116882,-42.55856,11.915259,42.0,13,-0.070595026
3.6404083,-3.5130463,-0.265134,37.0,6,-0.07059272
45.707996,-44.124275,14.667258,26.0,14,-0.070590414
4.502382,-4.3478994,-0.109252065,11.0,7,-0.07058811
1.8107502,-1.7541264,-0.67551774,43.0,0,-0.070565075
5.6244597,-5.448578,0.13668725,35.0,8,-0.070562765
1.9886068,-1.9270939,-0.6393109,56.0,1,-0.07056046
7.3236513,-7.099591,0.53455955,37.0,9,-0.07055816
2.1620007,-2.0965881,-0.585402,45.0,2,-0.07055586
10.164875,-9.860773,1.239006,35.0,10,-0.07055355
2.4467947,-2.3744235,-0.5400118,47.0,3,-0.07055125
17.794456,-17.268131,3.0445402,3.0,11,-0.070548944
2.7261884,-2.6464772,-0.46651587,37.0,4,-0.07054664
3.1254246,-3.03616,-0.3812192,40.0,5,-0.07054203
3.679063,-3.5764832,-0.26890215,33.0,6,-0.070537426
45.13103,-43.888012,14.533637,25.0,14,-0.07053512
4.531619,-4.406807,-0.11033412,13.0,7,-0.07053281
33.678017,-32.761875,12.589477,17.0,15,-0.07053051
1.8156792,-1.7712284,-0.67965883,43.0,0,-0.07050978
5.6287823,-5.492898,0.13728063,40.0,8,-0.070507474
1.9703746,-1.9234793,-0.63571167,51.0,1,-0.070505165
7.360279,-7.185103,0.5390604,31.0,9,-0.07050286
2.1448367,-2.0945208,-0.5827307,50.0,2,-0.07050056
10.248685,-10.011754,1.2534739,49.0,10,-0.07049826
2.4483812,-2.3926144,-0.54220194,38.0,3,-0.07049595
19.025637,-18.598782,3.26683,14.0,11,-0.070493646
2.7264054,-2.6661673,-0.46822205,34.0,4,-0.070491344
3.1689286,-3.0999956,-0.38784304,41.0,5,-0.07048674
45.124577,-44.1584,12.272453,44.0,13,-0.07048443
3.7364905,-3.6577647,-0.27403107,28.0,6,-0.07048213
45.271343,-44.33297,14.628568,25.0,14,-0.070479825
4.536211,-4.4421854,-0.11082278,13.0,7,-0.07047752
1.8163759,-1.7843244,-0.68224704,40.0,0,-0.07045448
5.6362133,-5.536758,0.13790892,32.0,8,-0.070452176
1.9584253,-1.9245391,-0.6339121,44.0,1,-0.070449874
7.399247,-7.2737584,0.5437706,26.0,9,-0.07044757
2.1599095,-2.1240196,-0.5888366,42.0,2,-0.07044526
10.348607,-10.180204,1.2700335,35.0,10,-0.07044296
2.4502912,-2.4104176,-0.544392,49.0,3,-0.07044066
19.006304,-18.703543,3.274142,7.0,11,-0.070438355
2.7331102,-2.6905122,-0.47090316,42.0,4,-0.070436046
3.1751204,-3.1278164,-0.38993478,41.0,5,-0.07043144
3.7513697,-3.6967711,-0.27601984,28.0,6,-0.07042683
45.137955,-44.49653,14.633066,26.0,14,-0.07042453
4.5349154,-4.472034,-0.111171834,13.0,7,-0.070422225
1.8008335,-1.7808294,-0.6786236,37.0,0,-0.07039919
5.6467066,-5.5859313,0.13864191,35.0,8,-0.07039688
1.9613914,-1.9409587,-0.63706136,44.0,1,-0.070394576
7.4418087,-7.364284,0.5486902,22.0,9,-0.07039227
2.1430874,-2.1215022,-0.58616525,46.0,2,-0.07038997
10.395487,-10.294375,1.2799692,35.0,10,-0.07038766
2.4362488,-2.413395,-0.54314053,41.0,3,-0.07038536
19.699495,-19.521513,3.4052734,7.0,11,-0.07038306
2.743439,-2.7196016,-0.47431552,40.0,4,-0.070380755
3.1845374,-3.1579695,-0.39237517,44.0,5,-0.07037614
3.7497845,-3.7210982,-0.27685726,21.0,6,-0.07037154
45.110977,-44.781498,14.674907,13.0,14,-0.07036923
4.528576,-4.4955006,-0.11138126,13.0,7,-0.07036693
1.7918684,-1.7843782,-0.6775883,42.0,0,-0.07034389
5.6465726,-5.622969,0.13909568,40.0,8,-0.07034159
1.9563249,-1.9488276,-0.63751125,48.0,1,-0.07033928
7.4542556,-7.42828,0.55151635,21.0,9,-0.070336975
2.2051895,-2.1982725,-0.6052462,34.0,2,-0.07033467
10.418742,-10.389688,1.2872903,41.0,10,-0.07033237
2.4422197,-2.435409,-0.5462692,45.0,3,-0.07033006
20.281128,-20.23163,3.5173934,23.0,11,-0.07032776
2.761103,-2.755326,-0.47894657,30.0,4,-0.07032546
3.1847727,-3.180329,-0.39376962,35.0,5,-0.070320845
45.18093,-45.11789,12.411363,45.0,13,-0.07031854
3.7670975,-3.763154,-0.27905536,18.0,6,-0.07031624
44.967743,-44.93636,14.676706,13.0,14,-0.07031394
4.5312414,-4.5296593,-0.111835025,12.0,7,-0.070311636
1.7938137,-1.7988297,-0.6806941,44.0,0,-0.07032013
5.6471014,-5.6648703,0.13961925,39.0,8,-0.07031783
1.9876847,-1.9946351,-0.6501085,36.0,1,-0.070315525
7.486083,-7.5122595,0.55580795,23.0,9,-0.070313215
2.2169003,-2.225429,-0.6105888,33.0,2,-0.07031091
10.4808235,-10.524817,1.2994921,49.0,10,-0.07030861
2.4430327,-2.454144,-0.5484593,37.0,3,-0.07030631
20.302053,-20.401512,3.5339675,32.0,11,-0.070304
2.7831855,-2.7977962,-0.48455253,28.0,4,-0.0703017
47.744324,-47.99497,10.722332,37.0,12,-0.070299394
3.2143939,-3.2323966,-0.39882466,24.0,5,-0.07029709
3.7673578,-3.7911034,-0.28010207,14.0,6,-0.07029248
4.526676,-4.5567985,-0.11211426,12.0,7,-0.070287876
1.8065543,-1.824298,-0.6879411,33.0,0,-0.07026483
5.6507983,-5.7063,0.14017773,37.0,8,-0.07026253
1.9865434,-2.0067554,-0.65190816,36.0,1,-0.07026023
7.503365,-7.582354,0.5590527,18.0,9,-0.070257924
2.222926,-2.247111,-0.61440504,31.0,2,-0.070255615
10.521073,-10.639256,1.3090792,33.0,10,-0.07025331
2.4459927,-2.4734683,-0.5509622,34.0,3,-0.07025101
20.468746,-20.705894,3.5749156,16.0,11,-0.07024871
2.8017986,-2.8352501,-0.48942733,25.0,4,-0.0702464
47.520973,-48.105125,10.709818,37.0,12,-0.070244096
3.210091,-3.2506862,-0.39969626,23.0,5,-0.070241794
3.7533622,-3.802154,-0.2799974,13.0,6,-0.07023718
46.79373,-47.41858,15.380353,14.0,14,-0.07023488
4.5289993,-4.5910783,-0.11256802,14.0,7,-0.07023258
1.835719,-1.8660854,-0.7013996,37.0,0,-0.07020954
5.66029,-5.755932,0.14091073,32.0,8,-0.07020723
2.0013845,-2.0359125,-0.65910655,41.0,1,-0.07020493
7.5160494,-7.648388,0.5619836,21.0,9,-0.07020263
2.2250943,-2.2642725,-0.61707634,27.0,2,-0.070200324
10.6086035,-10.799163,1.3244187,35.0,10,-0.070198014
2.4913223,-2.536959,-0.5631641,27.0,3,-0.07019571
20.623016,-21.008123,3.614645,12.0,11,-0.07019341
2.7849329,-2.8379283,-0.48820862,25.0,4,-0.07019111
47.62943,-48.55274,10.77239,38.0,12,-0.0701888
3.2112794,-3.274674,-0.40126503,24.0,5,-0.070186496
47.04005,-47.968678,13.05935,49.0,13,-0.07018419
3.7596412,-3.8352003,-0.2814628,13.0,6,-0.07018189
4.5269394,-4.621145,-0.11291707,14.0,7,-0.07017728
1.8302166,-1.8741835,-0.7019173,38.0,0,-0.07015424
5.6681046,-5.8042684,0.14160882,32.0,8,-0.07015194
1.9997107,-2.0484643,-0.6609062,36.0,1,-0.07014963
7.5367327,-7.7231774,0.5655424,21.0,9,-0.07014733
2.2154093,-2.271007,-0.6166947,25.0,2,-0.070145026
10.655193,-10.926411,1.3352259,33.0,10,-0.07014272
2.4902809,-2.55456,-0.56504136,22.0,3,-0.070140414
20.5648,-21.09562,3.617326,4.0,11,-0.07013811
2.7874787,-2.8604279,-0.49040228,22.0,4,-0.07013581
49.80018,-51.121315,11.303643,46.0,12,-0.07013351
3.203999,-3.2901456,-0.40178797,23.0,5,-0.070131205
3.753917,-3.8575423,-0.28209084,14.0,6,-0.07012659
4.5107813,-4.636918,-0.11291707,14.0,7,-0.07012199
48.950157,-50.33655,18.813557,54.0,15,-0.07011968
1.8263532,-1.8833342,-0.70295256,40.0,0,-0.070098944
5.6621046,-5.8407984,0.14199278,35.0,8,-0.07009664
2.005751,-2.0697742,-0.6654052,37.0,1,-0.07009434
7.552816,-7.793901,0.5687873,18.0,9,-0.07009203
2.2183967,-2.2900074,-0.61974764,28.0,2,-0.07008973
10.671044,-11.019357,1.3420241,33.0,10,-0.070087425
2.4758525,-2.55756,-0.56378984,20.0,3,-0.07008512
21.677294,-22.400503,3.827429,4.0,11,-0.07008282
2.7907777,-2.884893,-0.49283966,22.0,4,-0.07008051
50.082905,-51.77188,11.408767,47.0,12,-0.07007821
3.2035754,-3.3127677,-0.40318248,19.0,5,-0.07007591
3.7515316,-3.882112,-0.2829282,13.0,6,-0.070071295
4.5195765,-4.678523,-0.11354536,14.0,7,-0.07006669
1.8278083,-1.8980472,-0.7060584,32.0,0,-0.070043646
5.6662846,-5.8840284,0.14258616,37.0,8,-0.07004134
2.0002275,-2.077818,-0.6658551,26.0,1,-0.07003904
7.571265,-7.867709,0.5722414,21.0,9,-0.07003674
2.2212782,-2.309056,-0.6228006,25.0,2,-0.07003444
10.766474,-11.19584,1.3589324,33.0,10,-0.07003213
2.4728348,-2.5714514,-0.56504136,20.0,3,-0.070029825
21.823008,-22.701239,3.8664272,4.0,11,-0.07002752
2.793575,-2.9070132,-0.49503332,23.0,4,-0.07002522
3.1947517,-3.326804,-0.40353107,24.0,5,-0.07002061
3.7510862,-3.9074988,-0.28387025,11.0,6,-0.070016004
4.5198293,-4.7115874,-0.113964215,14.0,7,-0.07001139
48.998684,-51.095356,18.968847,54.0,15,-0.07000909
1.8348582,-1.9180577,-0.71123475,26.0,0,-0.069988355
5.6622963,-5.921115,0.14300501,32.0,8,-0.06998605
1.998349,-2.090422,-0.66765475,29.0,1,-0.06998374
7.586532,-7.938852,0.57548624,21.0,9,-0.06998144
2.2190344,-2.3220868,-0.62432706,24.0,2,-0.06997914
10.858656,-11.366904,1.3753176,35.0,10,-0.06997684
2.4720292,-2.588639,-0.56691855,23.0,3,-0.06997453
2.790263,-2.9239273,-0.496252,22.0,4,-0.06996992
3.1988301,-3.353238,-0.40544853,26.0,5,-0.06996531
3.7388017,-3.9220142,-0.28397492,11.0,6,-0.069960706
4.511631,-4.736024,-0.11417364,16.0,7,-0.069956094
1.8308127,-1.927252,-0.71227,26.0,0,-0.06993306
5.6650023,-5.965495,0.14359841,37.0,8,-0.069930755
1.9923815,-2.098798,-0.6681046,26.0,1,-0.06992845
7.597269,-8.005851,0.57841706,23.0,9,-0.06992614
2.213618,-2.3326666,-0.6250903,27.0,2,-0.06992384
11.009511,-11.60566,1.3995469,28.0,10,-0.06992154
2.4724927,-2.607286,-0.56910866,22.0,3,-0.069919236
22.813904,-24.066061,4.071655,5.0,11,-0.06991693
2.7814052,-2.9350903,-0.49649575,23.0,4,-0.069914624
50.33954,-53.139603,11.593359,50.0,12,-0.06991232
3.1939566,-3.3716156,-0.40632007,23.0,5,-0.06991002
3.7319539,-3.9422936,-0.2844983,11.0,6,-0.06990541
4.499194,-4.7561016,-0.11427836,22.0,7,-0.0699008
1.832028,-1.9420626,-0.7153759,25.0,0,-0.06987776
5.657863,-5.9997807,0.14394745,52.0,8,-0.06987546
1.995737,-2.117084,-0.6717038,28.0,1,-0.069873154
7.617218,-8.083196,0.58208054,22.0,9,-0.06987085
2.208155,-2.3432372,-0.62585354,24.0,2,-0.06986854
11.087788,-11.77019,1.414712,23.0,10,-0.06986624
2.4701483,-2.6230912,-0.570673,23.0,3,-0.06986394
23.84686,-25.332235,4.2717648,11.0,11,-0.069861636
2.779305,-2.953455,-0.49795815,25.0,4,-0.069859326
3.1903589,-3.3914514,-0.40736595,23.0,5,-0.06985472
3.7427936,-3.9814906,-0.28638238,11.0,6,-0.06985012
48.944134,-52.083763,16.50061,17.0,14,-0.06984781
4.4825654,-4.7717776,-0.11427836,22.0,7,-0.069845505
49.119522,-52.306976,19.226633,56.0,15,-0.0698432
1.8133514,-1.9357568,-0.7107171,24.0,0,-0.06982247
5.634153,-6.016575,0.14387764,62.0,8,-0.06982016
1.993662,-2.1297283,-0.67350346,26.0,1,-0.069817856
7.6367197,-8.160776,0.5857441,23.0,9,-0.06981555
2.2080107,-2.3595314,-0.62814325,25.0,2,-0.06981325
11.173218,-11.944139,1.430923,28.0,10,-0.06981094
2.4650242,-2.6360261,-0.57161164,22.0,3,-0.06980864
23.987385,-25.660397,4.312957,5.0,11,-0.06980634
2.7757556,-2.9703908,-0.49917686,27.0,4,-0.069804035
3.1757808,-3.3996549,-0.4070173,22.0,5,-0.06979942
3.7356873,-4.001831,-0.28690574,13.0,6,-0.06979482
48.357853,-51.821163,16.36384,17.0,14,-0.06979252
4.4454203,-4.7654614,-0.11375479,26.0,7,-0.06979021
1.8144782,-1.9505618,-0.71382296,24.0,0,-0.06976717
5.6158395,-6.039134,0.14394745,77.0,8,-0.06976487
1.9875423,-2.1381018,-0.67395335,24.0,1,-0.06976256
7.639458,-8.221035,0.5881516,25.0,9,-0.069760256
2.2077796,-2.3758535,-0.63043296,23.0,2,-0.06975795
11.21553,-12.073573,1.4417304,25.0,10,-0.06975565
2.457152,-2.6460621,-0.57192445,23.0,3,-0.06975335
25.040218,-26.97479,4.5191593,18.0,11,-0.06975104
2.7734718,-2.9887924,-0.5006393,26.0,4,-0.06974874
3.1747348,-3.4224057,-0.4084118,20.0,5,-0.06974413
50.749714,-54.728012,14.507972,58.0,13,-0.06974182
3.720338,-4.013382,-0.28680107,11.0,6,-0.06973952
4.3553767,-4.7017326,-0.111869924,24.0,7,-0.069734916
1.8142123,-1.9639788,-0.7164112,24.0,0,-0.06971187
5.594724,-6.0587,0.14394745,77.0,8,-0.06970957
1.9761016,-2.1407309,-0.67260367,23.0,1,-0.06970727
7.603942,-8.240314,0.5876282,28.0,9,-0.069704965
2.2021353,-2.3864315,-0.6311962,22.0,2,-0.069702655
11.471866,-12.4362955,1.4802531,27.0,10,-0.06970035
2.4519176,-2.6589797,-0.5728631,22.0,3,-0.06969805
24.986269,-27.105822,4.5264716,18.0,11,-0.06969575
2.7670574,-3.002835,-0.50137055,25.0,4,-0.06969344
3.1762676,-3.4481208,-0.41015494,22.0,5,-0.069688834
3.6873682,-4.005771,-0.28533566,26.0,6,-0.06968422
48.06615,-52.234936,16.388134,17.0,14,-0.06968192
4.3375835,-4.715435,-0.111835025,24.0,7,-0.06967962
1.8125694,-1.975994,-0.71848166,23.0,0,-0.06965658
5.5938144,-6.100301,0.14447103,67.0,8,-0.06965427
1.9765177,-2.1562347,-0.67530304,22.0,1,-0.06965197
7.444315,-8.121197,0.57737035,33.0,9,-0.06964967
2.1964447,-2.3969986,-0.63195944,21.0,2,-0.069647364
11.593917,-12.656974,1.5016935,30.0,10,-0.069645055
2.4506254,-2.6762636,-0.5747403,22.0,3,-0.06964275
25.427637,-27.778584,4.623967,6.0,11,-0.06964045
2.7517235,-3.0061376,-0.5003956,23.0,4,-0.06963815
3.1776597,-3.473888,-0.41189805,22.0,5,-0.069633536
3.6720154,-4.017144,-0.285231,37.0,6,-0.06962893
4.3192253,-4.7268405,-0.11176521,24.0,7,-0.06962432
1.8073077,-1.9834219,-0.7189993,24.0,0,-0.06960128
5.5816336,-6.1276855,0.14468044,67.0,8,-0.06959898
1.9798527,-2.1743045,-0.67890227,23.0,1,-0.06959667
7.38507,-8.110396,0.5748582,42.0,9,-0.06959437
2.191127,-2.407173,-0.6327227,22.0,2,-0.069592066
11.738265,-12.900186,1.5259228,24.0,10,-0.069589764
2.4470541,-2.6902204,-0.57599175,21.0,3,-0.069587454
26.405102,-29.039183,4.819202,13.0,11,-0.06958515
2.7537587,-3.0284638,-0.5025892,23.0,4,-0.06958285
3.1661222,-3.4844065,-0.41189805,23.0,5,-0.06957824
3.64122,-4.0100765,-0.28387025,48.0,6,-0.06957363
48.271492,-53.161404,16.577993,18.0,14,-0.06957133
4.296807,-4.7337346,-0.11159069,22.0,7,-0.06956903
1.7968315,-1.9851077,-0.7174464,24.0,0,-0.069545984
5.5720167,-6.158025,0.14495969,65.0,8,-0.06954368
1.9752461,-2.1837485,-0.67980206,23.0,1,-0.06954138
7.3660913,-8.146496,0.5755909,42.0,9,-0.06953907
2.1844492,-2.4158819,-0.63310426,22.0,2,-0.06953677
11.8049755,-13.060241,1.5402162,21.0,10,-0.069534466
2.4407685,-2.7012515,-0.5766175,21.0,3,-0.06953216
26.653278,-29.508121,4.88233,14.0,11,-0.069529854
2.7538133,-3.049845,-0.50453913,22.0,4,-0.06952755
3.1552746,-3.496916,-0.41207233,24.0,5,-0.06952295
3.6118493,-4.004332,-0.28261417,40.0,6,-0.069518335
47.957737,-53.187744,16.533901,18.0,14,-0.06951603
4.3418436,-4.817031,-0.11319631,24.0,7,-0.06951373
1.7947084,-1.9974278,-0.719517,22.0,0,-0.069490686
5.5598426,-6.187849,0.14520402,77.0,8,-0.069488384
1.9676113,-2.19063,-0.67980206,23.0,1,-0.06948608
7.3669662,-8.204853,0.5778937,42.0,9,-0.06948378
2.1808252,-2.4297163,-0.63463074,21.0,2,-0.06948148
12.017822,-13.394081,1.5743814,25.0,10,-0.06947917
2.434808,-2.714591,-0.57755613,23.0,3,-0.069476865
27.220795,-30.348726,5.005662,7.0,11,-0.06947456
2.7497766,-3.0668287,-0.5057578,23.0,4,-0.06947226
3.1470375,-3.5123606,-0.41259527,24.0,5,-0.06946765
3.595816,-4.016055,-0.2825095,45.0,6,-0.069463044
48.789207,-54.51029,16.889324,18.0,14,-0.069460735
4.3516755,-4.861958,-0.11389441,26.0,7,-0.06945843
1.7954417,-2.0123293,-0.7226228,22.0,0,-0.069435395
5.5544286,-6.2275863,0.1456578,75.0,8,-0.06943309
