x,y,z,intensity,ring,time
0.8172556,-5.3784513,-0.86164117,34.0,3,-0.047104806
1.007723,-6.6475596,-0.825543,43.0,4,-0.047100198
1.2945195,-8.549521,-0.7565118,34.0,5,-0.04709559
1.9223504,-12.725964,-0.6745059,41.0,6,-0.04709098
3.0296626,-20.1039,-0.35487723,12.0,7,-0.047086373
0.5111009,-3.4239419,-0.9276075,22.0,0,-0.047063336
10.320043,-69.21825,1.2215637,38.0,8,-0.04706103
0.57894546,-3.8877385,-0.9074526,32.0,1,-0.047058728
0.6804879,-4.5750976,-0.8990921,28.0,2,-0.04705412
0.79876614,-5.383225,-0.861954,37.0,3,-0.04704951
0.99671984,-6.7335124,-0.83578,35.0,4,-0.047044903
7.513687,-50.821194,8.136784,13.0,12,-0.047042597
1.285941,-8.697868,-0.76923656,35.0,5,-0.047040295
1.886949,-12.793849,-0.6777507,45.0,6,-0.047035687
7.9819617,-54.184586,12.644499,25.0,14,-0.047033384
2.9891608,-20.316149,-0.3584375,17.0,7,-0.04703108
0.50248843,-3.448645,-0.9338192,24.0,0,-0.047008038
10.067985,-69.1826,1.2203072,38.0,8,-0.047005735
0.5645306,-3.8839505,-0.9061029,33.0,1,-0.04700343
0.66620636,-4.589102,-0.9013818,28.0,2,-0.04699882
7.780296,-53.659775,4.7437124,19.0,10,-0.04699652
0.78563297,-5.42508,-0.8682114,35.0,3,-0.046994213
0.9601544,-6.6465745,-0.82456803,43.0,4,-0.046989605
7.5195975,-52.11795,8.340148,14.0,12,-0.046987303
1.2717893,-8.814707,-0.77917236,26.0,5,-0.046985
1.8482548,-12.841873,-0.6799488,39.0,6,-0.046980392
7.753122,-53.936283,12.580163,33.0,14,-0.046978086
2.9148135,-20.302708,-0.3580187,8.0,7,-0.046975784
0.484738,-3.4102128,-0.9229488,20.0,0,-0.046952743
0.55014884,-3.8801088,-0.90475315,34.0,1,-0.046948135
15.13902,-106.907234,5.6586685,52.0,9,-0.04694583
0.6521101,-4.6050067,-0.9040531,33.0,2,-0.046943527
7.6448417,-54.05354,4.7761345,19.0,10,-0.046941224
0.7655852,-5.4199657,-0.8669599,37.0,3,-0.04693892
0.92836267,-6.5889497,-0.8170122,39.0,4,-0.04693431
7.298538,-51.866116,8.295721,14.0,12,-0.046932008
1.261557,-8.965091,-0.79207134,34.0,5,-0.046929702
7.485196,-53.259933,10.454425,33.0,13,-0.0469274
1.8172991,-12.94714,-0.68518245,39.0,6,-0.046925094
7.524761,-53.677395,12.513577,8.0,14,-0.04692279
2.9997513,-21.425732,-0.37763515,13.0,7,-0.046920486
0.4762785,-3.4367604,-0.9296781,17.0,0,-0.046897445
0.54060376,-3.910961,-0.91150165,31.0,1,-0.04689284
0.6414012,-4.6461515,-0.91168547,33.0,2,-0.046888232
7.467534,-54.162792,4.783456,19.0,10,-0.046885926
0.7472008,-5.4265194,-0.86758566,37.0,3,-0.046883624
0.9169704,-6.6767154,-0.82749295,43.0,4,-0.046879016
7.1115456,-51.84822,8.288837,14.0,12,-0.04687671
1.2356708,-9.008918,-0.7955576,34.0,5,-0.046874408
1.795103,-13.121606,-0.6940795,35.0,6,-0.0468698
7.3558106,-53.838493,12.54507,8.0,14,-0.046867494
2.9392745,-21.541082,-0.37948513,27.0,7,-0.04686519
0.4606603,-3.4115992,-0.9224311,19.0,0,-0.04684215
0.52564806,-3.903168,-0.90925217,28.0,1,-0.046837542
14.339066,-106.61443,5.6377344,52.0,9,-0.04683524
0.62230086,-4.626958,-0.9074876,33.0,2,-0.046832934
7.217958,-53.738308,4.7437124,19.0,10,-0.04683063
0.7290419,-5.4349675,-0.8685242,39.0,3,-0.046828326
0.889974,-6.652329,-0.8240805,45.0,4,-0.046823718
1.2126594,-9.076371,-0.80113554,34.0,5,-0.04681911
7.128249,-53.423767,10.476559,33.0,13,-0.046816807
1.7651186,-13.246576,-0.7003598,43.0,6,-0.0468145
6.9246616,-52.03644,12.119463,15.0,14,-0.0468122
2.8893507,-21.74151,-0.38283598,4.0,7,-0.046809893
0.45428887,-3.4553246,-0.9338192,15.0,0,-0.046786856
0.5150603,-3.9281652,-0.9146509,28.0,1,-0.046782248
0.6114982,-4.669982,-0.91550165,33.0,2,-0.04677764
7.0623703,-54.00815,4.7653275,19.0,10,-0.046775334
0.715693,-5.4805717,-0.87540734,26.0,3,-0.04677303
0.86777294,-6.6632695,-0.82505554,45.0,4,-0.046768423
1.1858515,-9.118088,-0.8044475,40.0,5,-0.046763815
1.7209234,-13.268502,-0.7011972,37.0,6,-0.046759207
6.7307115,-51.9656,12.097418,22.0,14,-0.0467569
6.827936,-52.78856,14.262483,28.0,15,-0.046752296
0.44320518,-3.4645543,-0.9358897,16.0,0,-0.046731558
0.4988208,-3.9047225,-0.9088022,27.0,1,-0.04672695
10.065519,-78.9014,4.168559,51.0,9,-0.046724647
0.59147215,-4.642875,-0.90977734,33.0,2,-0.04672234
6.8219995,-53.62532,4.729419,18.0,10,-0.04672004
0.69676673,-5.477036,-0.87446874,30.0,3,-0.046717733
0.8454226,-6.66414,-0.82481176,45.0,4,-0.046713125
6.487894,-51.213203,8.176205,13.0,12,-0.046710823
1.1670189,-9.2249565,-0.8135117,35.0,5,-0.046708517
6.5118847,-51.474625,10.085401,32.0,13,-0.046706215
1.685426,-13.341508,-0.7047561,39.0,6,-0.046703912
6.6171293,-52.453583,12.205844,7.0,14,-0.046701606
2.8347723,-22.502697,-0.3958904,4.0,7,-0.046699304
6.6436205,-52.812077,14.262483,28.0,15,-0.046697
0.43123618,-3.4621708,-0.93485445,15.0,0,-0.046676263
9.779224,-78.6241,1.3829637,61.0,8,-0.046673957
0.49191356,-3.9605885,-0.92139953,29.0,1,-0.046671655
8.013697,-64.6136,3.4122002,23.0,9,-0.04666935
0.5794553,-4.6720877,-0.91511995,28.0,2,-0.046667047
6.6397314,-53.61206,4.7262816,18.0,10,-0.04666474
0.675705,-5.4637513,-0.8719658,32.0,3,-0.04666244
0.8236121,-6.678872,-0.8262742,46.0,4,-0.04665783
6.3105407,-51.2473,8.178082,13.0,12,-0.04665553
1.124842,-9.147897,-0.80636495,32.0,5,-0.046653222
1.6476059,-13.418675,-0.7085243,43.0,6,-0.046648614
2.8602128,-23.361979,-0.41082963,4.0,7,-0.046644006
0.41738495,-3.4541388,-0.93226624,14.0,0,-0.046620965
0.4787862,-3.9680858,-0.9227492,32.0,1,-0.04661636
7.793836,-64.68877,3.4147122,23.0,9,-0.046614055
0.56138927,-4.6663833,-0.9135935,30.0,2,-0.046611752
6.379027,-53.10193,4.6792173,18.0,10,-0.046609446
0.66061515,-5.5073786,-0.87853605,36.0,3,-0.046607144
0.8019466,-6.695503,-0.82798034,45.0,4,-0.046602536
6.420144,-53.681534,8.562911,15.0,12,-0.04660023
1.1063691,-9.264532,-0.81630063,56.0,5,-0.046597928
1.6149423,-13.563451,-0.71585125,30.0,6,-0.04659332
6.4148483,-53.956734,12.5446205,16.0,14,-0.046591014
2.7864368,-23.43735,-0.4119815,4.0,7,-0.04658871
0.4051005,-3.453656,-0.93174857,17.0,0,-0.04656567
11.506647,-98.247406,1.7266364,63.0,8,-0.04656337
0.4676339,-3.998847,-0.9294977,24.0,1,-0.046561062
7.5451126,-64.617714,3.4094787,22.0,9,-0.04655876
0.5523838,-4.730715,-0.9258053,31.0,2,-0.046556454
6.2656126,-53.741314,4.7336025,19.0,10,-0.046554152
0.6466402,-5.5547805,-0.88573205,35.0,3,-0.046551846
0.77717197,-6.696426,-0.8277367,46.0,4,-0.046547238
1.0907242,-9.426861,-0.83024555,42.0,5,-0.04654263
1.5923433,-13.783285,-0.72715586,34.0,6,-0.04653802
6.0703783,-52.625603,12.230139,22.0,14,-0.04653572
3.1233366,-27.118574,-0.4764856,5.0,7,-0.046533413
6.0531907,-52.637993,14.197261,27.0,15,-0.04653111
0.39396554,-3.4685538,-0.93537205,14.0,0,-0.046510376
0.45081818,-3.9752831,-0.9236491,28.0,1,-0.046505768
7.3073645,-64.53648,3.4038262,22.0,9,-0.046503462
0.53239447,-4.7092977,-0.92122585,34.0,2,-0.04650116
6.081565,-53.878742,4.7437124,19.0,10,-0.046498854
0.6251704,-5.5472984,-0.88416773,38.0,3,-0.04649655
0.7682199,-6.82732,-0.84357965,28.0,4,-0.046491943
1.0578126,-9.43061,-0.83024555,43.0,5,-0.046487335
5.868948,-52.405403,10.250259,32.0,13,-0.04648503
1.5537989,-13.896213,-0.7328081,26.0,6,-0.046482727
6.0188556,-53.914104,12.524375,8.0,14,-0.04648042
2.9922726,-26.803385,-0.4707612,5.0,7,-0.04647812
5.8766875,-52.72408,14.21486,27.0,15,-0.046475813
0.3900807,-3.5389695,-0.954007,11.0,0,-0.046402216
0.434385,-3.9535873,-0.9182502,28.0,1,-0.046397608
6.7301154,-61.353275,3.2346764,16.0,9,-0.046395306
0.52148443,-4.7539716,-0.92962146,34.0,2,-0.046393
0.61063665,-5.5846868,-0.88979936,38.0,3,-0.04638839
0.7697624,-7.0628223,-0.87234086,41.0,4,-0.046383783
5.6495414,-51.920525,8.271942,14.0,12,-0.04638148
1.0394647,-9.552909,-0.8407043,43.0,5,-0.046379175
5.7413597,-52.85006,10.333452,33.0,13,-0.046376873
1.5173994,-13.990642,-0.73751837,32.0,6,-0.046374567
5.8513637,-54.03839,12.54867,8.0,14,-0.046372265
3.030656,-28.034369,-0.49219278,5.0,7,-0.04636996
5.678513,-52.613667,14.179661,27.0,15,-0.046367656
0.37956995,-3.557598,-0.9586658,10.0,0,-0.04634692
0.43047285,-4.0480943,-0.93984544,28.0,1,-0.046342313
6.414288,-60.419094,3.1842246,14.0,9,-0.046340007
0.51234865,-4.826045,-0.94335973,31.0,2,-0.046337705
6.6378007,-62.628654,5.509986,29.0,10,-0.0463354
0.5994528,-5.665361,-0.90231407,31.0,3,-0.046333097
0.7538484,-7.1483803,-0.8825779,45.0,4,-0.04632849
6.0051966,-57.03982,9.08415,17.0,12,-0.046326183
1.007365,-9.568366,-0.8417501,43.0,5,-0.04632388
1.472515,-14.033593,-0.73950714,44.0,6,-0.046319272
5.669403,-54.122444,12.563517,16.0,14,-0.046316966
3.031779,-28.991468,-0.5088075,6.0,7,-0.046314664
5.567034,-53.324875,14.366011,29.0,15,-0.04631236
0.36635575,-3.5512147,-0.9565952,9.0,0,-0.046291623
0.41374922,-4.0243716,-0.93399686,38.0,1,-0.046287015
6.330732,-61.576477,3.244097,16.0,9,-0.046284713
0.4979041,-4.85124,-0.94793916,34.0,2,-0.046282407
5.5556774,-54.223927,4.7688136,19.0,10,-0.046280105
0.57826686,-5.6536627,-0.900124,28.0,3,-0.0462778
0.7280859,-7.1430683,-0.8816029,48.0,4,-0.04627319
5.211874,-51.132393,8.140537,13.0,12,-0.04627089
0.97738755,-9.605522,-0.84471345,36.0,5,-0.046268582
5.207982,-51.271603,10.017473,31.0,13,-0.04626628
1.4356086,-14.157872,-0.74578744,24.0,6,-0.046263974
5.2527814,-51.892857,12.04163,22.0,14,-0.046261672
5.2526684,-51.98222,13.999523,26.0,15,-0.046257064
0.35242555,-3.5370932,-0.9524541,8.0,0,-0.04623633
0.4023302,-4.045113,-0.9384959,34.0,1,-0.04623172
6.3576646,-64.03486,3.3724246,21.0,9,-0.046229415
0.480193,-4.8451333,-0.9464126,31.0,2,-0.046227112
5.376172,-54.34212,4.7775292,19.0,10,-0.046224806
0.56184834,-5.679139,-0.90387845,26.0,3,-0.046222504
0.7131587,-7.2343416,-0.89257115,46.0,4,-0.046217896
5.037998,-51.197456,8.1480465,13.0,12,-0.046215594
0.9535903,-9.708018,-0.853429,40.0,5,-0.046213288
1.4303592,-14.587929,-0.7681872,40.0,6,-0.04620868
5.0899754,-52.005024,12.063675,7.0,14,-0.046206377
2.8577063,-29.250257,-0.512996,6.0,7,-0.04620407
4.941802,-50.673553,13.642352,23.0,15,-0.04620177
0.34365657,-3.5690098,-0.96073633,6.0,0,-0.04618103
0.38597435,-4.0232153,-0.933097,26.0,1,-0.046176422
0.46169022,-4.8212934,-0.9414516,33.0,2,-0.046171814
5.2107234,-54.514355,4.7911253,19.0,10,-0.046169512
0.545211,-5.714495,-0.9091972,33.0,3,-0.04616721
6.644171,-69.768036,8.605195,41.0,11,-0.046164904
0.6880886,-7.2387633,-0.8928149,48.0,4,-0.0461626
0.9275876,-9.794595,-0.8607501,40.0,5,-0.046157993
1.3905182,-14.710147,-0.77436286,34.0,6,-0.046153385
4.885347,-51.77802,12.006988,14.0,14,-0.04615108
3.0702028,-32.600765,-0.5715663,7.0,7,-0.046148777
3.4291632,-36.480614,9.818042,18.0,15,-0.04614647
0.33075124,-3.572169,-0.961254,6.0,0,-0.046125736
6.5047836,-70.252754,1.2315116,40.0,8,-0.04612343
0.37336284,-4.0400615,-0.9366962,33.0,1,-0.046121128
0.44203633,-4.8014483,-0.93725383,30.0,2,-0.04611652
5.526088,-60.139957,5.2837296,24.0,10,-0.046114217
0.5229997,-5.702685,-0.90700716,28.0,3,-0.04611191
5.585494,-60.903122,7.509346,19.0,11,-0.04610961
0.6642647,-7.256936,-0.89476484,48.0,4,-0.046107303
5.3583612,-58.6516,9.328188,18.0,12,-0.046105
0.8977331,-9.845393,-0.8649336,42.0,5,-0.046102695
1.328465,-14.625637,-0.7696526,29.0,6,-0.046098087
4.83805,-53.367607,12.371408,23.0,14,-0.046095785
2.9524095,-32.567467,-0.5707984,7.0,7,-0.04609348
4.605322,-50.899223,13.694117,24.0,15,-0.046091177
0.3208513,-3.6021652,-0.9690186,6.0,0,-0.04607044
6.2327304,-70.1128,1.2286494,39.0,8,-0.046068136
0.3583805,-4.039462,-0.9362463,32.0,1,-0.046065833
5.2765656,-59.474457,3.1291673,12.0,9,-0.046063527
0.43081492,-4.8655415,-0.94946563,33.0,2,-0.046061225
5.3929415,-61.02816,5.3600783,25.0,10,-0.04605892
0.5041315,-5.7162824,-0.90888435,24.0,3,-0.046056617
5.365716,-60.962734,7.5142207,19.0,11,-0.04605431
0.6380588,-7.249323,-0.8935461,52.0,4,-0.04605201
5.16362,-58.784077,9.346334,18.0,12,-0.046049703
0.86196977,-9.832588,-0.8635391,38.0,5,-0.0460474
1.2860897,-14.72967,-0.77488625,27.0,6,-0.046042792
4.6508837,-53.26688,12.344414,23.0,14,-0.046040487
2.837845,-32.56762,-0.57062393,14.0,7,-0.046038184
0.306759,-3.5781872,-0.9622893,5.0,0,-0.046015143
4.7524242,-55.548584,0.9731462,11.0,8,-0.04601284
0.34481776,-4.0386868,-0.93579644,33.0,1,-0.046010535
0.41001084,-4.81217,-0.93878025,31.0,2,-0.046005927
0.48517266,-5.7179227,-0.90888435,28.0,3,-0.04600132
5.1635313,-60.980194,7.5142207,19.0,11,-0.045999017
0.61384875,-7.249421,-0.8933024,58.0,4,-0.04599671
4.99826,-59.151245,9.402025,18.0,12,-0.04599441
0.83002824,-9.843334,-0.8642363,35.0,5,-0.045992102
1.249437,-14.879142,-0.78252727,36.0,6,-0.045987494
4.461987,-53.136368,12.310671,15.0,14,-0.045985192
2.79679,-33.375927,-0.5846207,15.0,7,-0.04598289
0.29965037,-3.6369448,-0.97781837,3.0,0,-0.04595985
4.512657,-54.88842,0.9613134,23.0,8,-0.045957543
0.3358844,-4.0941896,-0.94839364,33.0,1,-0.04595524
4.86999,-59.48909,3.1281204,12.0,9,-0.045952935
0.3954478,-4.8409667,-0.94412297,30.0,2,-0.045950633
0.46973976,-5.7628145,-0.91576743,29.0,3,-0.045946024
4.9670763,-61.06821,7.5229955,20.0,11,-0.04594372
0.591108,-7.283177,-0.8972022,58.0,4,-0.045941416
4.7908025,-59.156525,9.400148,18.0,12,-0.04593911
0.80192316,-9.923622,-0.8710345,43.0,5,-0.045936808
4.0126615,-49.76404,9.704546,30.0,13,-0.045934506
1.2027769,-14.94911,-0.7859815,34.0,6,-0.0459322
4.1917706,-52.098804,12.066824,22.0,14,-0.045929898
2.686029,-33.45724,-0.58587724,15.0,7,-0.04592759
4.1799912,-52.180233,14.026441,26.0,15,-0.04592529
0.28889492,-3.6707585,-0.9866183,3.0,0,-0.04590455
4.295952,-54.707233,0.9578579,34.0,8,-0.04590225
0.3231594,-4.124535,-0.9551422,32.0,1,-0.045899943
4.270238,-54.62415,2.8714647,10.0,9,-0.04589764
0.3786186,-4.854127,-0.9464126,30.0,2,-0.045895334
0.44631577,-5.7349567,-0.91107446,36.0,3,-0.045890726
4.765345,-61.371,7.5580935,20.0,11,-0.045888424
0.5630307,-7.2674823,-0.8950085,46.0,4,-0.04588612
4.2149696,-54.529602,8.662403,15.0,12,-0.045883816
0.77795494,-10.0873995,-0.88515365,42.0,5,-0.045881514
3.8980176,-50.659275,9.876274,30.0,13,-0.045879208
1.1638768,-15.160523,-0.7968674,42.0,6,-0.045876905
3.7765925,-49.19345,11.390621,6.0,14,-0.0458746
2.5826304,-33.71809,-0.5902753,23.0,7,-0.045872297
4.0007825,-52.353153,14.068886,26.0,15,-0.04586999
0.27514988,-3.66794,-0.98558295,2.0,0,-0.045849256
4.094806,-54.71463,0.95771825,34.0,8,-0.04584695
0.30905613,-4.1392956,-0.9582915,31.0,1,-0.045844648
4.0792456,-54.634743,2.8712556,21.0,9,-0.045842342
0.36254713,-4.8671665,-0.94870234,28.0,2,-0.04584004
4.430181,-59.615273,5.230042,22.0,10,-0.045837738
0.42923698,-5.789743,-0.91952187,28.0,3,-0.04583543
4.6118298,-62.35414,7.677038,23.0,11,-0.04583313
0.5405872,-7.3089967,-0.89988333,46.0,4,-0.045830823
4.0382686,-54.72916,8.691813,15.0,12,-0.04582852
0.74244463,-10.08608,-0.8848051,42.0,5,-0.045826215
3.7162757,-50.606,9.863299,30.0,13,-0.045823913
1.1119726,-15.178437,-0.79760003,47.0,6,-0.045821607
3.6012971,-49.15775,11.379374,12.0,14,-0.045819305
2.4915848,-34.091866,-0.5966628,24.0,7,-0.045817
2.681275,-36.775642,9.880159,18.0,15,-0.045814697
0.26588547,-3.7092974,-0.99645334,1.0,0,-0.04579396
4.521216,-63.228905,1.1064825,22.0,8,-0.045791656
0.29477328,-4.132522,-0.9564919,31.0,1,-0.045789354
3.8973353,-54.63801,2.870732,31.0,9,-0.045787048
0.34696218,-4.8761744,-0.9502288,30.0,2,-0.045784745
3.8719118,-54.549873,4.7845016,19.0,10,-0.04578244
0.41198817,-5.818721,-0.92390203,24.0,3,-0.045780137
3.902667,-55.25635,6.8015285,13.0,11,-0.04577783
0.5191435,-7.3503523,-0.9047581,45.0,4,-0.04577553
3.8872976,-55.17576,8.760644,16.0,12,-0.045773223
0.71444213,-10.165998,-0.89160323,38.0,5,-0.04577092
1.0637221,-15.211927,-0.79917014,45.0,6,-0.045766313
3.4598765,-49.47852,11.450909,25.0,14,-0.045764007
2.3910441,-34.279476,-0.5998043,24.0,7,-0.045761704
2.3120546,-33.230583,8.925633,7.0,15,-0.0457594
0.2527935,-3.6985946,-0.9933476,1.0,0,-0.045738664
4.301722,-63.09991,1.1039695,43.0,8,-0.04573636
0.2818608,-4.1451426,-0.9591913,27.0,1,-0.045734055
3.7110476,-54.717037,2.8741863,43.0,9,-0.045731753
0.33451048,-4.932144,-0.96091413,33.0,2,-0.045729447
3.6998694,-54.693607,4.796006,19.0,10,-0.045727145
0.39229116,-5.814142,-0.92296344,31.0,3,-0.04572484
3.6972814,-54.940212,6.7610683,27.0,11,-0.045722537
0.49521178,-7.377868,-0.9079267,45.0,4,-0.04572023
3.6772559,-54.928825,8.719345,16.0,12,-0.04571793
0.68631566,-10.251805,-0.8989243,40.0,5,-0.045715623
3.3666966,-50.421898,9.822847,30.0,13,-0.04571332
1.0184488,-15.293092,-0.80325234,47.0,6,-0.045711014
3.536661,-53.24698,12.320119,7.0,14,-0.045708712
2.2709746,-34.28163,-0.5996996,24.0,7,-0.045706406
2.1923497,-33.18255,8.910623,23.0,15,-0.045704104
0.24238138,-3.7380106,-1.0037004,1.0,0,-0.04568337
0.26713887,-4.142212,-0.9582915,24.0,1,-0.04567876
3.5597646,-55.34753,2.9066346,11.0,9,-0.045676455
0.3215762,-4.9998946,-0.9738891,31.0,2,-0.045674153
3.3298736,-51.914608,4.551273,17.0,10,-0.045671847
0.3751459,-5.8647604,-0.9307852,29.0,3,-0.045669544
2.2912858,-35.9187,4.4192266,5.0,11,-0.04566724
0.47537738,-7.472663,-0.9193824,46.0,4,-0.045664936
3.4564855,-54.483955,8.64676,15.0,12,-0.04566263
0.6548159,-10.321745,-0.90485096,38.0,5,-0.045660328
3.412312,-53.936634,10.50518,34.0,13,-0.045658022
0.9752438,-15.458012,-0.8117308,38.0,6,-0.04565572
3.354809,-53.32318,12.334967,15.0,14,-0.045653418
2.1615663,-34.453003,-0.6025618,24.0,7,-0.04565111
2.0756624,-33.176502,8.906999,15.0,15,-0.04564881
0.23406309,-3.815963,-1.0244058,1.0,0,-0.04562807
0.25339037,-4.15479,-0.9609909,24.0,1,-0.045623463
3.8379073,-63.110645,3.313599,19.0,9,-0.04562116
0.30436018,-5.004906,-0.9746524,37.0,2,-0.045618854
3.134165,-51.687267,4.5303555,17.0,10,-0.045616552
0.35526773,-5.875893,-0.93234956,33.0,3,-0.045614246
2.1680412,-35.962147,4.4236135,5.0,11,-0.045611944
0.4528641,-7.5337224,-0.9266946,46.0,4,-0.045609638
3.2485507,-54.199917,8.59983,15.0,12,-0.045607336
0.622358,-10.383632,-0.91008025,36.0,5,-0.045605034
0.9248447,-15.521132,-0.8148709,45.0,6,-0.045600425
3.1626513,-53.233414,12.311571,15.0,14,-0.04559812
2.0533457,-34.663956,-0.60612214,24.0,7,-0.045595817
2.1710124,-36.75897,9.8667,9.0,15,-0.04559351
0.21873361,-3.7820413,-1.0150883,1.0,0,-0.045572776
0.23944496,-4.165376,-0.9632404,26.0,1,-0.04556817
2.9595869,-51.642277,2.7108982,9.0,9,-0.045565862
0.28598854,-4.9902573,-0.9715994,34.0,2,-0.04556356
0.33453006,-5.8731527,-0.9317238,33.0,3,-0.04555895
3.088221,-54.38531,6.688434,13.0,11,-0.04555665
0.42936933,-7.584805,-0.932788,48.0,4,-0.045554344
3.0697987,-54.396317,8.629239,15.0,12,-0.04555204
0.59205806,-10.49117,-0.91931874,33.0,5,-0.045549735
3.028402,-53.829773,10.479994,34.0,13,-0.045547433
0.8736794,-15.578108,-0.81769705,29.0,6,-0.045545127
2.7852466,-49.817745,11.519294,6.0,14,-0.045542825
1.9351186,-34.720825,-0.6069947,24.0,7,-0.04554052
1.8823615,-33.880726,9.092313,16.0,15,-0.045538217
0.20741694,-3.8175042,-1.0244058,1.0,0,-0.04551748
1.972496,-36.421074,0.6366638,4.0,8,-0.045515176
0.22490352,-4.1661863,-0.9632404,23.0,1,-0.045512874
2.7743719,-51.56055,2.706083,9.0,9,-0.045510568
0.26751316,-4.971621,-0.9677832,33.0,2,-0.045508265
2.72544,-50.816578,4.452264,16.0,10,-0.04550596
0.3167691,-5.9255714,-0.9398584,22.0,3,-0.045503657
1.9197814,-36.02993,4.430195,35.0,11,-0.04550135
0.4037319,-7.6021166,-0.934738,39.0,4,-0.04549905
1.9244928,-36.357273,5.766488,6.0,12,-0.045496743
0.5576969,-10.570865,-0.9261169,40.0,5,-0.04549444
0.8223374,-15.638904,-0.8207326,24.0,6,-0.045489833
2.592566,-49.46909,11.436512,25.0,14,-0.045487527
1.8232992,-34.907093,-0.61013615,24.0,7,-0.045485225
1.7211025,-33.061375,8.870765,15.0,15,-0.04548292
1.8498011,-36.515606,0.63819957,40.0,8,-0.04545988
0.21085061,-4.176678,-0.9654899,24.0,1,-0.045457575
1.8402406,-36.57948,1.9194738,22.0,9,-0.045455273
0.25027236,-4.992176,-0.9715994,30.0,2,-0.045452967
2.6161196,-52.366417,4.587181,17.0,10,-0.045450665
0.29504785,-5.9266925,-0.9398584,33.0,3,-0.04544836
1.7953783,-36.064167,4.433607,17.0,11,-0.045446057
0.3770954,-7.601496,-0.9344942,43.0,4,-0.04544375
0.51765597,-10.509067,-0.9205389,36.0,5,-0.045439143
0.77477056,-15.8413,-0.83119977,22.0,6,-0.045434535
1.8235078,-37.418175,8.648918,3.0,14,-0.045432232
1.7053279,-34.993137,-0.61153233,24.0,7,-0.045429926
1.6247994,-33.460815,8.976363,15.0,15,-0.045427624
1.7135116,-36.47021,0.6372921,40.0,8,-0.045404583
0.19772767,-4.224141,-0.97628754,27.0,1,-0.04540228
1.7036657,-36.396145,1.9095298,40.0,9,-0.045399975
0.23449096,-5.02832,-0.9784686,27.0,2,-0.045397673
1.6915548,-36.4095,3.1888542,15.0,10,-0.045395367
0.27919912,-6.032269,-0.95644045,26.0,3,-0.045393065
1.6609024,-36.020935,4.4275136,23.0,11,-0.04539076
0.34959626,-7.6107597,-0.9354692,43.0,4,-0.045388456
1.6771548,-36.511898,5.7890143,6.0,12,-0.04538615
0.48151675,-10.522752,-0.9215848,38.0,5,-0.04538385
1.5781156,-34.619415,6.736321,12.0,13,-0.045381542
0.7352317,-16.191072,-0.8494127,33.0,6,-0.04537924
1.5747964,-34.813725,8.0456,26.0,14,-0.045376934
1.5901299,-35.152695,-0.61421996,25.0,7,-0.045374632
1.4925095,-33.12276,8.884223,7.0,15,-0.04537233
1.590206,-36.42175,0.6363497,13.0,8,-0.04534929
0.18625906,-4.2831807,-0.9897846,34.0,1,-0.045346983
1.578514,-36.44577,1.9118327,27.0,9,-0.04534468
0.2161758,-5.011455,-0.975034,30.0,2,-0.045342375
1.5634245,-36.3913,3.1867626,23.0,10,-0.045340072
0.26351777,-6.1338134,-0.97239673,35.0,3,-0.045337766
1.5429739,-36.06194,4.431901,35.0,11,-0.045335464
0.3270602,-7.675342,-0.9432688,45.0,4,-0.04533316
1.5260748,-35.96097,5.700785,24.0,12,-0.045330856
0.4421731,-10.46266,-0.9161811,35.0,5,-0.04532855
1.46131,-34.577385,6.727162,12.0,13,-0.045326248
0.67901784,-16.133556,-0.84627247,26.0,6,-0.045323946
1.5449435,-36.861187,8.517547,14.0,14,-0.04532164
1.4711616,-35.247936,-0.61579067,33.0,7,-0.045319337
0.16943792,-4.2370725,-0.978987,30.0,1,-0.04529169
1.4508821,-36.44108,1.9113092,31.0,9,-0.045289382
0.20041499,-5.033723,-0.97923183,27.0,2,-0.04528708
1.4437666,-36.422157,3.1890285,47.0,10,-0.045284774
0.24304049,-6.1583815,-0.97615117,44.0,3,-0.045282472
1.4384335,-36.610603,4.4986854,6.0,11,-0.04528017
0.30243945,-7.7319775,-0.9500935,45.0,4,-0.045277864
1.4030781,-36.03122,5.7111106,12.0,12,-0.04527556
0.41205135,-10.581531,-0.9264655,40.0,5,-0.045273256
1.3409107,-34.59012,6.7286882,24.0,13,-0.045270953
0.63964075,-16.574898,-0.8693003,21.0,6,-0.045268647
1.3662918,-35.565556,8.217011,10.0,14,-0.045266345
1.3541545,-35.41072,-0.6185482,17.0,7,-0.04526404
1.3010659,-34.17868,9.164783,16.0,15,-0.045261737
0.1556416,-4.264902,-0.9852856,30.0,1,-0.045236394
1.3202665,-36.35211,1.9063897,40.0,9,-0.045234088
0.18334204,-5.0481253,-0.9819032,28.0,2,-0.045231786
1.3167638,-36.43096,3.1893773,47.0,10,-0.04522948
0.22267818,-6.1907783,-0.98115706,36.0,3,-0.045227177
1.3034611,-36.41503,4.4740677,36.0,11,-0.04522487
0.2759424,-7.746873,-0.95179963,45.0,4,-0.04522257
1.2807206,-36.132633,5.726441,24.0,12,-0.045220263
0.37729874,-10.64463,-0.93186915,45.0,5,-0.04521796
1.2155964,-34.465096,6.7035017,24.0,13,-0.045215655
0.59074587,-16.832523,-0.88269836,23.0,6,-0.045213353
1.2366947,-35.414303,8.18102,3.0,14,-0.045211047
1.2372092,-35.607086,-0.62189907,8.0,7,-0.045208745
1.2725269,-36.80876,9.868771,18.0,15,-0.04520644
0.14171731,-4.294635,-0.9920342,31.0,1,-0.045181096
1.1883894,-36.20479,1.8984346,27.0,9,-0.045178793
0.1662354,-5.064432,-0.9849561,31.0,2,-0.045176487
1.1883518,-36.397503,3.1860654,23.0,10,-0.045174185
0.20151561,-6.2053375,-0.9833472,40.0,3,-0.04517188
1.1685814,-36.17929,4.4445753,12.0,11,-0.045169577
0.24717794,-7.6942186,-0.94521874,46.0,4,-0.04516727
1.1596992,-36.296806,5.751783,36.0,12,-0.04516497
0.34020433,-10.647873,-0.9320435,37.0,5,-0.045162663
1.1399225,-35.874115,6.976741,12.0,13,-0.04516036
0.52820224,-16.714705,-0.876418,26.0,6,-0.045158055
1.1084806,-35.272324,8.147278,26.0,14,-0.045155752
1.1335174,-36.270767,-0.63341767,8.0,7,-0.045153446
0.12471424,-4.226927,-0.97628754,30.0,1,-0.0451258
1.0659217,-36.342476,1.9054476,36.0,9,-0.045123495
0.1499944,-5.114042,-0.9944966,34.0,2,-0.045121193
1.0622214,-36.433292,3.1888542,23.0,10,-0.045118887
0.17939651,-6.190208,-0.98084426,36.0,3,-0.045116585
1.0618367,-36.861774,4.527934,6.0,11,-0.04511428
0.21884125,-7.643444,-0.9388815,46.0,4,-0.045111977
1.0372058,-36.448727,5.7752485,12.0,12,-0.04510967
0.3059243,-10.750567,-0.9409334,41.0,5,-0.04510737
1.022354,-36.14869,7.0294037,13.0,13,-0.045105062
0.4728275,-16.822262,-0.88196564,33.0,6,-0.04510276
0.9825158,-35.174686,8.123882,26.0,14,-0.045100454
0.9822882,-35.61173,9.545764,8.0,15,-0.045095846
0.111512594,-4.2584867,-0.983486,30.0,1,-0.04510228
0.947532,-36.42767,1.9097393,27.0,9,-0.045099977
0.13264969,-5.1341605,-0.9983127,36.0,2,-0.04509767
0.9573024,-37.05206,3.2427166,16.0,10,-0.04509537
0.15952657,-6.2164397,-0.98491156,36.0,3,-0.045093063
0.93043673,-36.505905,4.4838176,12.0,11,-0.04509076
0.19575453,-7.7334275,-0.9498497,45.0,4,-0.045088455
0.9140469,-36.361126,5.760856,24.0,12,-0.045086153
0.27237332,-10.910911,-0.9548783,43.0,5,-0.045083847
0.8583133,-34.6251,6.732505,12.0,13,-0.045081545
0.41611844,-16.90567,-0.8862571,28.0,6,-0.04507924
0.8725351,-35.44854,8.186419,13.0,14,-0.045076936
0.8812334,-36.057743,-0.6295781,8.0,7,-0.04507463
0.8327909,-34.320835,9.198946,8.0,15,-0.04507233
0.095903635,-4.258867,-0.983486,27.0,1,-0.045046985
0.11404863,-5.1444254,-1.0002208,36.0,2,-0.045042377
0.8129701,-36.670883,3.2090745,16.0,10,-0.04504007
0.13652381,-6.2071075,-0.9833472,30.0,3,-0.04503777
0.8027781,-36.790882,4.518428,30.0,11,-0.045035463
0.16547555,-7.6447854,-0.9388815,43.0,4,-0.04503316
0.79039985,-36.812542,5.8318777,12.0,12,-0.045030855
0.23522304,-11.045296,-0.96655715,37.0,5,-0.045028552
0.7322288,-34.667267,6.740137,12.0,13,-0.045026246
0.35716662,-17.050856,-0.8937936,33.0,6,-0.045023944
0.7429747,-35.469032,8.190468,26.0,14,-0.04502164
0.7500653,-36.10871,-0.63041586,8.0,7,-0.045019336
0.68789655,-33.396564,8.95048,15.0,15,-0.04501703
0.080513775,-4.27088,-0.98618543,27.0,1,-0.044991687
0.6963301,-37.282322,1.9542247,18.0,9,-0.044989385
0.09601709,-5.1408668,-0.9994576,36.0,2,-0.04498708
0.67992216,-36.74732,3.215524,24.0,10,-0.044984777
0.11449659,-6.247068,-0.98960453,34.0,3,-0.04498247
0.66375166,-36.563347,4.4901543,36.0,11,-0.04498017
0.13988033,-7.7803044,-0.9554557,45.0,4,-0.044977862
0.6487528,-36.437954,5.7721195,24.0,12,-0.04497556
0.19755402,-11.095851,-0.97091496,41.0,5,-0.044973254
0.8691713,-49.301434,9.584718,29.0,13,-0.044970952
0.2990725,-17.133875,-0.8980851,35.0,6,-0.044968646
0.613036,-35.475418,8.191368,9.0,14,-0.044966344
0.43614152,-25.496387,-0.44510618,21.0,7,-0.04496404
0.58540356,-34.57519,9.265722,16.0,15,-0.044961736
0.0660844,-4.3023114,-0.9933839,24.0,1,-0.044936392
0.3860795,-25.424175,1.3325783,13.0,9,-0.044934087
0.078369476,-5.160801,-1.0032737,36.0,2,-0.044931784
0.55239254,-36.79927,3.2198815,24.0,10,-0.04492948
0.09327546,-6.2869325,-0.9958619,34.0,3,-0.044927176
0.53800833,-36.694458,4.5059977,12.0,11,-0.04492487
0.11203172,-7.7331085,-0.949606,46.0,4,-0.044922568
0.52226233,-36.489372,5.7799416,25.0,12,-0.044920266
0.1591059,-11.116395,-0.9726581,41.0,5,-0.04491796
0.52599466,-37.20388,7.2324247,27.0,13,-0.044915657
0.24046293,-17.220686,-0.902586,30.0,6,-0.04491335
0.5136719,-37.252472,8.601228,10.0,14,-0.04491105
0.3469183,-25.481758,-0.44482693,100.0,7,-0.044908743
0.47071037,-35.02324,9.385297,8.0,15,-0.04490644
0.30585817,-25.39629,0.44332603,24.0,8,-0.0448834
0.05078796,-4.2791324,-0.987985,24.0,1,-0.044881094
0.4472102,-37.67963,1.9748452,9.0,9,-0.044878792
0.060722232,-5.192453,-1.0093796,36.0,2,-0.044876486
0.42435226,-36.836838,3.2230194,24.0,10,-0.044874184
0.07114995,-6.2714176,-0.99335897,26.0,3,-0.04487188
0.39905164,-35.72348,4.3865657,5.0,11,-0.044869576
0.08580211,-7.8029265,-0.95813686,41.0,4,-0.044867273
0.40158507,-36.52053,5.784634,12.0,12,-0.044864967
0.11986997,-11.077038,-0.9691719,41.0,5,-0.044862665
0.38855827,-36.49483,7.0942783,26.0,13,-0.04486036
0.1812678,-17.309296,-0.9071916,26.0,6,-0.044858057
0.3902187,-37.893192,8.748796,3.0,14,-0.04485575
0.35538653,-35.10574,9.407037,8.0,15,-0.044851143
0.7394809,-84.73587,1.4791265,63.0,8,-0.044828102
0.036514584,-4.2695336,-0.9857356,31.0,1,-0.0448258
0.31491482,-37.589096,1.9700303,4.0,9,-0.044823498
0.04259667,-5.1926336,-1.0093796,36.0,2,-0.04482119
0.29694334,-36.985527,3.2359183,24.0,10,-0.04481889
0.049908493,-6.2163105,-0.98459864,26.0,3,-0.044816583
0.29142463,-37.104202,4.555964,37.0,11,-0.04481428
0.060215548,-7.8408837,-0.9627679,39.0,4,-0.044811975
0.27498633,-36.640236,5.8034067,18.0,12,-0.044809673
0.08222652,-11.216851,-0.9813736,43.0,5,-0.044807367
0.26866043,-36.64905,7.1240454,26.0,13,-0.044805065
0.12485671,-17.447609,-0.91441387,30.0,6,-0.04480276
0.2654274,-38.018993,8.77759,15.0,14,-0.044800457
0.23384088,-35.257454,9.447413,8.0,15,-0.04479585
0.51329744,-98.03173,1.7111735,3.0,8,-0.044772808
0.021788329,-4.304712,-0.9938338,24.0,1,-0.044770505
0.18418942,-37.689827,1.9752638,13.0,9,-0.0447682
0.02536725,-5.1907825,-1.008998,37.0,2,-0.044765897
0.23769039,-50.438774,4.4128695,16.0,10,-0.04476359
0.028344246,-6.246077,-0.98929167,24.0,3,-0.04476129
0.16202526,-37.132786,4.5593762,37.0,11,-0.044758983
0.032587398,-7.7795086,-0.955212,39.0,4,-0.04475668
0.14921488,-37.17037,5.8872557,6.0,12,-0.044754375
0.04530916,-11.286797,-0.98747456,39.0,5,-0.044752073
0.14079972,-36.669395,7.1278615,13.0,13,-0.044749767
0.06445496,-17.585749,-0.9216363,38.0,6,-0.044747464
0.12728977,-36.464607,8.418569,3.0,14,-0.04474516
0.13193473,-39.785725,-0.6944662,10.0,7,-0.044742856
0.14768563,-84.61899,1.4770321,63.0,8,-0.044717513
0.0068174424,-4.339839,-1.0019319,20.0,1,-0.044715207
0.035432987,-25.37715,1.3299614,7.0,9,-0.044712905
0.0072778924,-5.2124357,-1.0131959,36.0,2,-0.0447106
0.031064829,-25.426857,2.2245631,8.0,10,-0.044708297
0.00653142,-6.236261,-0.9877273,26.0,3,-0.04470599
0.022252228,-25.4985,3.1308236,3.0,11,-0.04470369
0.0054480596,-7.803396,-0.95813686,35.0,4,-0.044701383
0.019579677,-37.399803,5.923548,6.0,12,-0.04469908
0.005848453,-11.171328,-0.9773645,30.0,5,-0.044696774
0.012773338,-36.587208,7.1118336,13.0,13,-0.044694472
0.0030924242,-17.711693,-0.9282306,33.0,6,-0.044692166
-1.5954615e-06,-36.499905,8.426667,24.0,14,-0.044689864
-0.0068323934,-39.166035,-0.68364567,10.0,7,-0.04468756
-0.013396173,-38.38782,10.285987,10.0,15,-0.044685256
-0.008365775,-4.357375,-1.0059811,23.0,1,-0.044659913
-0.010974035,-5.239915,-1.0185385,36.0,2,-0.044655304
-0.114989914,-50.682278,4.4341354,16.0,10,-0.044653
-0.015175402,-6.210566,-0.98366,24.0,3,-0.044650696
-0.10215672,-39.02083,4.791172,6.0,11,-0.04464839
-0.021956492,-7.8629203,-0.96544904,41.0,4,-0.044646088
-0.10311133,-36.925575,5.8484597,12.0,12,-0.044643782
-0.03412708,-11.502014,-1.0063002,39.0,5,-0.04464148
-0.11501496,-36.610588,7.1164126,13.0,13,-0.044639178
-0.058952,-17.777506,-0.93168473,28.0,6,-0.04463687
-0.12731828,-36.47435,8.420817,28.0,14,-0.04463457
-0.1422114,-38.80098,10.396762,10.0,15,-0.04462996
-0.022733327,-4.341734,-1.0023819,23.0,1,-0.044604614
-0.13655633,-25.238995,1.3227391,2.0,9,-0.044602312
-0.029330619,-5.2516236,-1.0208282,36.0,2,-0.044600006
-0.14605567,-25.358715,2.2186365,4.0,10,-0.044597704
-0.03603147,-6.2559147,-0.990856,28.0,3,-0.044595398
-0.15345228,-25.859344,3.175184,3.0,11,-0.044593096
-0.04791073,-7.8429537,-0.9630116,28.0,4,-0.044590794
-0.23336329,-37.1403,5.882562,19.0,12,-0.044588488
-0.074120946,-11.477917,-1.0042084,39.0,5,-0.044586185
-0.2577913,-39.919987,7.759821,15.0,13,-0.04458388
-0.118222594,-17.825144,-0.9341969,28.0,6,-0.044581577
-0.24817942,-36.460083,8.417668,31.0,14,-0.04457927
-0.26169962,-36.57095,9.799408,9.0,15,-0.044574663
-0.037854776,-4.337731,-1.0014821,21.0,1,-0.04454932
-0.046779994,-5.2554235,-1.0215914,28.0,2,-0.04454471
-0.23032919,-25.378014,2.2203796,4.0,10,-0.04454241
-0.05861781,-6.3367376,-1.0036837,26.0,3,-0.044540104
-0.3658155,-38.812786,4.765823,6.0,11,-0.0445378
-0.07648722,-7.967794,-0.9783672,35.0,4,-0.044535495
-0.36151573,-36.987164,5.8584714,6.0,12,-0.044533193
-0.11280625,-11.541361,-1.0097864,43.0,5,-0.044530887
-0.18216011,-17.99438,-0.943094,32.0,6,-0.04452628
-0.37560454,-36.474583,8.4212675,14.0,14,-0.044523977
-0.41395366,-38.880173,10.418502,10.0,15,-0.04451937
-0.053257536,-4.3590064,-1.006431,18.0,1,-0.044494025
-0.0648334,-5.231672,-1.017012,27.0,2,-0.044489417
-0.45651463,-36.326363,3.1783955,15.0,10,-0.04448711
-0.081893906,-6.4273543,-1.0180756,38.0,3,-0.04448481
-0.47293648,-36.615948,4.496248,6.0,11,-0.044482503
-0.10614462,-8.108408,-0.9956726,41.0,4,-0.0444802
-0.48706043,-36.71705,5.8159213,6.0,12,-0.044477895
-0.15314561,-11.544881,-1.010135,41.0,5,-0.044475593
-0.6788436,-50.509975,9.819032,30.0,13,-0.044473287
-0.24461818,-17.967676,-0.9417333,25.0,6,-0.044470984
-0.68117446,-49.399765,11.405918,18.0,14,-0.04446868
-0.51623756,-36.51415,9.784914,18.0,15,-0.04446407
-0.06865729,-4.370485,-1.0091304,16.0,1,-0.044438727
-0.08359335,-5.2628217,-1.0231179,21.0,2,-0.04443412
-0.814793,-50.73962,4.4397135,16.0,10,-0.044431817
-0.10423382,-6.421104,-1.017137,27.0,3,-0.04442951
-0.60054827,-36.602158,4.4947853,6.0,11,-0.04442721
-0.13612638,-8.209214,-1.0081033,48.0,4,-0.044424903
-0.6158869,-36.754627,5.822179,6.0,12,-0.0444226
-0.19331065,-11.536308,-1.0094378,43.0,5,-0.044420294
-0.30774602,-17.990677,-0.9429894,25.0,6,-0.044415686
-0.85127985,-49.26264,11.374875,12.0,14,-0.044413384
-0.68081063,-38.617508,10.349138,10.0,15,-0.044408776
-1.5131181,-79.52749,1.3884087,62.0,8,-0.044385735
-0.08529651,-4.4423094,-1.0257769,22.0,1,-0.044383433
-0.10223051,-5.2762375,-1.0257893,28.0,2,-0.044378825
-0.12781511,-6.4799504,-1.0265231,29.0,3,-0.044374216
-0.7300927,-36.68915,4.5057535,12.0,11,-0.04437191
-0.16593663,-8.266244,-1.0151716,48.0,4,-0.04436961
-0.765852,-37.82269,5.9917536,6.0,12,-0.044367302
-0.23442467,-11.577395,-1.0130984,45.0,5,-0.044365
-0.37531492,-18.221125,-0.95513123,27.0,6,-0.04436039
-1.0243217,-49.31198,11.387022,6.0,14,-0.04435809
-0.7841961,-37.127705,9.950558,9.0,15,-0.04435348
-0.09938737,-4.3796406,-1.01138,18.0,1,-0.044328135
-0.11997366,-5.2464075,-1.020065,27.0,2,-0.044323526
-0.15006697,-6.4636664,-1.0240202,36.0,3,-0.04431892
-0.85922164,-36.732025,4.5113597,6.0,11,-0.044316616
-0.19535068,-8.28943,-1.0180966,50.0,4,-0.04431431
-0.8533387,-35.943703,5.694528,6.0,12,-0.044312008
-0.2790954,-11.6700735,-1.021291,24.0,5,-0.044309705
-0.9001914,-37.640533,7.3186703,27.0,13,-0.0443074
-0.43982846,-18.25764,-0.95712,35.0,6,-0.044305097
-0.96609724,-39.814682,9.194649,8.0,14,-0.04430279
-0.9013376,-36.61875,9.814936,9.0,15,-0.044298183
-0.82680184,-31.786407,0.55502146,3.0,8,-0.044275142
-0.11365497,-4.340306,-1.0023819,18.0,1,-0.04427284
-0.14086846,-5.3087344,-1.0322767,27.0,2,-0.04426823
-1.3520674,-50.620518,4.4303007,16.0,10,-0.04426593
-0.17391586,-6.468997,-1.0249587,40.0,3,-0.044263624
-1.3788043,-51.286182,6.299427,11.0,11,-0.04426132
-0.22369461,-8.26687,-1.0154155,46.0,4,-0.044259015
-1.1047432,-40.565125,6.427267,7.0,12,-0.044256713
-0.3324946,-12.131088,-1.0617312,42.0,5,-0.044254407
-1.041285,-37.7508,7.3408036,13.0,13,-0.044252105
-0.5067988,-18.257902,-0.9572247,35.0,6,-0.0442498
-1.419992,-50.836445,11.741096,13.0,14,-0.044247497
-1.0237286,-36.422268,9.763172,9.0,15,-0.04424289
-2.3759575,-80.05456,1.3979727,63.0,8,-0.044219848
-0.13427258,-4.4976373,-1.038824,16.0,1,-0.044217546
-0.9536541,-31.758083,1.665121,11.0,9,-0.04421524
-0.15645231,-5.210092,-1.0131959,31.0,2,-0.044212937
-1.534768,-50.81464,4.4477315,16.0,10,-0.04421063
-0.19655597,-6.470325,-1.0252717,40.0,3,-0.04420833
-1.5570697,-50.963318,6.260429,11.0,11,-0.044206023
-0.25356507,-8.252105,-1.0137093,48.0,4,-0.04420372
-1.1620159,-37.6031,5.958589,6.0,12,-0.044201415
-0.37877688,-12.257307,-1.0728872,42.0,5,-0.044199113
-1.1754941,-37.82543,7.3560686,13.0,13,-0.044196807
-0.57439846,-18.379791,-0.9637144,42.0,6,-0.044194505
-1.2374475,-39.376293,9.0952215,4.0,14,-0.0441922
-1.2431139,-39.121506,10.487866,10.0,15,-0.04418759
-0.14717816,-4.413392,-1.0194782,21.0,1,-0.044162247
-0.17891298,-5.337054,-1.038001,27.0,2,-0.04415764
-1.8313135,-54.34545,4.757309,19.0,10,-0.044155337
-0.21974169,-6.487368,-1.0280875,44.0,3,-0.04415303
-0.2838636,-8.294815,-1.0190716,48.0,4,-0.044148423
-1.2711996,-36.9572,5.8569074,19.0,12,-0.04414612
-0.42080742,-12.234005,-1.0709697,44.0,5,-0.044143815
-1.3201356,-38.186047,7.42705,14.0,13,-0.044141512
-0.643891,-18.53137,-0.9717741,42.0,6,-0.044139206
-1.3714893,-39.274357,9.072725,24.0,14,-0.044136904
-1.2820147,-36.348373,9.745573,9.0,15,-0.044132296
-0.1646637,-4.4693265,-1.0325253,16.0,1,-0.044106953
-0.19928488,-5.383483,-1.0471598,27.0,2,-0.044102345
-1.1846669,-31.852226,2.7886353,5.0,10,-0.04410004
-0.24201685,-6.476691,-1.0265231,38.0,3,-0.044097736
-1.8894384,-50.328323,6.1838946,11.0,11,-0.04409543
-0.31333917,-8.30766,-1.0207777,45.0,4,-0.04409313
-1.3524977,-35.859196,5.6835775,12.0,12,-0.044090822
-0.46252915,-12.206581,-1.0687038,46.0,5,-0.04408852
-0.70941156,-18.550964,-0.9729255,30.0,6,-0.044083912
-1.5119414,-39.356956,9.092971,12.0,14,-0.044081606
-0.17995252,-4.4804387,-1.0352248,20.0,1,-0.044051655
-3.2777956,-81.25632,4.2619267,52.0,9,-0.044049352
-0.21640672,-5.3415594,-1.0391458,31.0,2,-0.044047046
-2.1921904,-53.87745,4.717566,18.0,10,-0.044044744
-0.2646168,-6.5034847,-1.0309032,38.0,3,-0.04404244
-0.34194508,-8.332359,-1.0239463,45.0,4,-0.04403783
-1.630509,-39.562843,6.271458,7.0,12,-0.044035528
-0.5059581,-12.224798,-1.0704468,46.0,5,-0.044033222
-2.2185526,-53.603962,10.428475,33.0,13,-0.04403092
-0.77498955,-18.646292,-0.97805446,22.0,6,-0.044028617
-1.5824736,-37.91481,8.760944,11.0,14,-0.04402631
-1.5074635,-35.817665,9.60581,8.0,15,-0.044021703
-0.1941467,-4.4466867,-1.0275764,13.0,1,-0.04399636
-0.23575194,-5.378079,-1.0463966,31.0,2,-0.043991752
-2.3054938,-52.385,4.5875297,17.0,10,-0.043989446
-0.28975907,-6.5577784,-1.0396636,36.0,3,-0.043987144
-0.37314728,-8.378711,-1.0297961,33.0,4,-0.043982536
-1.7698308,-39.584534,6.2758384,7.0,12,-0.043980233
-0.5421341,-12.125524,-1.0619056,40.0,5,-0.043977927
-0.84357935,-18.721287,-0.98213667,20.0,6,-0.04397332
-1.7156004,-37.926575,8.764993,11.0,14,-0.043971017
-1.6307269,-35.773586,9.595458,8.0,15,-0.04396641
-0.21232906,-4.5024323,-1.0406237,18.0,1,-0.043941066
-0.25452363,-5.377223,-1.0463966,27.0,2,-0.043936457
-2.4819162,-52.241302,4.5756764,17.0,10,-0.04393415
-0.31650516,-6.6376257,-1.0524912,40.0,3,-0.04393185
-2.3690536,-49.501175,6.084937,11.0,11,-0.043929543
-0.4026791,-8.383305,-1.0305272,39.0,4,-0.04392724
-1.9066606,-39.550495,6.271458,7.0,12,-0.043924935
-0.58234495,-12.079775,-1.0580707,44.0,5,-0.043922633
-1.9386373,-40.068306,7.7976007,15.0,13,-0.043920327
-0.9202579,-18.95163,-0.9943832,22.0,6,-0.043918025
-1.8728318,-38.43032,8.882868,15.0,14,-0.04391572
-0.23100209,-4.560051,-1.0541207,16.0,1,-0.043885767
-4.602838,-90.54866,4.7515817,58.0,9,-0.043883465
-0.2718969,-5.348852,-1.0410539,28.0,2,-0.04388116
-2.6646585,-52.24028,4.5763736,35.0,10,-0.043878857
-0.34078455,-6.6581817,-1.0559328,38.0,3,-0.04387655
-2.555469,-49.758255,6.1175976,22.0,11,-0.04387425
-0.436945,-8.478989,-1.0424705,43.0,4,-0.043871943
-0.6257441,-12.101545,-1.0601624,44.0,5,-0.043867335
-2.0805254,-40.100506,7.805233,15.0,13,-0.043865032
-1.0027057,-19.26145,-1.0108168,27.0,6,-0.043862727
-2.030754,-38.87893,8.988144,3.0,14,-0.043860424
-2.0350225,-38.70141,10.384338,10.0,15,-0.043855816
-4.879872,-90.39661,1.5801759,63.0,8,-0.043832775
-0.2459699,-4.541704,-1.0500715,13.0,1,-0.043830473
-0.29109892,-5.357672,-1.042962,25.0,2,-0.043825865
-0.3639154,-6.6549788,-1.0556198,42.0,3,-0.043821257
-2.734798,-49.852104,6.1302724,22.0,11,-0.04381895
-0.46926782,-8.526964,-1.0485638,43.0,4,-0.04381665
-2.1857777,-39.59145,6.280219,14.0,12,-0.043814342
-0.6569985,-11.900352,-1.0427313,41.0,5,-0.04381204
-2.2222233,-40.124367,7.8113394,15.0,13,-0.043809734
-1.0814601,-19.465227,-1.0217026,25.0,6,-0.043807432
-2.0807822,-37.33449,8.632722,10.0,14,-0.043805126
-2.1530173,-38.38932,10.302552,10.0,15,-0.043800518
-0.26294327,-4.5602727,-1.0545706,16.0,1,-0.043828648
-5.213779,-90.423515,4.746767,58.0,9,-0.043826345
-0.31161276,-5.387983,-1.0490679,27.0,2,-0.04382404
-0.38806075,-6.6694446,-1.0581229,42.0,3,-0.04381943
-2.9249904,-50.119694,6.1643953,11.0,11,-0.04381713
-0.4977529,-8.503476,-1.0458828,28.0,4,-0.043814823
-0.7091612,-12.078982,-1.0585936,42.0,5,-0.043810215
-2.3262641,-39.50489,7.6922746,15.0,13,-0.043807913
-1.158936,-19.62283,-1.030181,32.0,6,-0.043805607
-0.27652222,-4.534089,-1.0487218,14.0,1,-0.043773353
-5.5708537,-91.08257,4.782356,58.0,9,-0.043771047
-0.33053815,-5.3888226,-1.0494496,27.0,2,-0.043768745
-0.41211608,-6.699668,-1.0631288,42.0,3,-0.043764137
-0.53930914,-8.717741,-1.0724503,46.0,4,-0.04375953
-0.7469907,-12.006833,-1.0524927,24.0,5,-0.04375492
-1.2315885,-19.740477,-1.0365661,27.0,6,-0.043750312
-2.3034632,-36.817665,8.516646,14.0,14,-0.043748006
-2.4475079,-38.902054,10.444384,21.0,15,-0.043743398
-0.29598418,-4.589493,-1.061769,12.0,1,-0.043718055
-0.34878653,-5.3935733,-1.0505943,29.0,2,-0.043713447
-0.43511623,-6.692274,-1.0621902,33.0,3,-0.04370884
-0.56844085,-8.695996,-1.0700129,43.0,4,-0.04370423
-0.7792453,-11.88898,-1.0423827,15.0,5,-0.043699622
-1.2937888,-19.634417,-1.0312277,22.0,6,-0.043695014
-2.4859304,-37.62609,8.7056055,15.0,14,-0.04369271
-2.369347,-35.67225,9.579411,17.0,15,-0.043688104
-0.31160673,-4.5825987,-1.0604193,11.0,1,-0.04366276
-0.37001526,-5.42758,-1.0574635,27.0,2,-0.043658152
-0.45995885,-6.7123923,-1.0656317,27.0,3,-0.043653544
-3.6969826,-53.81408,6.623112,13.0,11,-0.043651238
-0.6079311,-8.826647,-1.0863434,48.0,4,-0.043648936
-0.86163014,-12.4783745,1.9810863,22.0,12,-0.043646634
-0.82334733,-11.923952,-1.0456946,12.0,5,-0.043644328
-2.6711059,-38.58573,7.518256,14.0,13,-0.043642025
-1.3789141,-19.868877,-1.0437884,22.0,6,-0.04363972
-2.6946194,-38.729176,8.96295,15.0,14,-0.043637417
-2.5004563,-35.75819,9.604774,17.0,15,-0.04363281
-0.32634974,-4.563989,-1.0563701,8.0,1,-0.043607462
-0.3944333,-5.5026264,-1.0723467,29.0,2,-0.043602854
-0.48608258,-6.7481813,-1.0715762,29.0,3,-0.04359825
-0.89710987,-12.424108,1.5294603,40.0,11,-0.043595944
-0.6423211,-8.873968,-1.0924369,46.0,4,-0.04359364
-3.5691252,-49.18992,7.8113995,12.0,12,-0.043591335
-0.8779417,-12.099851,-1.0613827,32.0,5,-0.043589033
-2.8069196,-38.59184,7.52131,14.0,13,-0.043586727
-1.4658324,-20.10497,-1.0564537,26.0,6,-0.043584425
-2.8184352,-38.56405,8.926958,27.0,14,-0.04358212
-2.7729678,-37.76068,10.145189,9.0,15,-0.04357751
-0.3414051,-4.5511622,-1.0536706,10.0,1,-0.043552168
-0.4167294,-5.5423284,-1.0803605,27.0,2,-0.04354756
-4.3240023,-57.37352,5.033767,21.0,10,-0.043545257
-0.5123145,-6.7818995,-1.0772078,31.0,3,-0.04354295
-0.94077134,-12.424861,1.5299479,22.0,11,-0.04354065
-0.67479455,-8.891466,-1.0948743,46.0,4,-0.043538343
-0.92516005,-12.1622715,-1.0671349,44.0,5,-0.043533735
-1.5422431,-20.181381,-1.0607452,23.0,6,-0.043529127
-2.9049568,-37.926373,8.781639,7.0,14,-0.043526825
-2.913955,-37.870193,10.177283,19.0,15,-0.043522216
-0.36003515,-4.584913,-1.061769,8.0,1,-0.043496873
-0.9558887,-12.145723,0.6384987,43.0,9,-0.043494567
-0.43884596,-5.5760694,-1.0872297,29.0,2,-0.043492265
-0.53380466,-6.7525005,-1.0728277,31.0,3,-0.043487657
-0.99323034,-12.536276,1.5440848,12.0,11,-0.04348535
-0.70897126,-8.928633,-1.099749,46.0,4,-0.04348305
-1.0118413,-12.714809,2.020195,1.0,12,-0.043480743
-0.97614247,-12.266218,-1.0765477,52.0,5,-0.04347844
-3.9534688,-49.569862,9.666002,29.0,13,-0.043476135
-1.6166587,-20.225647,-1.063362,28.0,6,-0.043473832
-3.0289207,-37.811104,8.757344,30.0,14,-0.043471526
-2.9686592,-36.89698,9.918464,9.0,15,-0.04346692
-0.37603685,-4.583628,-1.061769,8.0,1,-0.043441575
-0.9766775,-11.879561,0.62468207,51.0,9,-0.043439273
-0.45637712,-5.551024,-1.0826503,29.0,2,-0.043436967
-4.713641,-57.210876,5.0222626,21.0,10,-0.043434665
-0.5572096,-6.748627,-1.0725149,27.0,3,-0.04343236
-1.0386213,-12.552516,1.5465221,50.0,11,-0.043430056
-0.73914874,-8.914234,-1.0982866,46.0,4,-0.04342775
-1.054257,-12.687578,2.0164404,46.0,12,-0.04342545
-1.0156556,-12.223025,-1.0730615,48.0,5,-0.043423142
-4.1264715,-49.55576,9.666002,29.0,13,-0.04342084
-1.6930608,-20.289543,-1.0670255,34.0,6,-0.043418534
-3.164141,-37.839138,8.766342,30.0,14,-0.043416232
-0.39269954,-4.590054,-1.0635686,6.0,1,-0.04338628
-1.0142155,-11.83031,0.6222746,40.0,9,-0.043383975
-0.47692508,-5.5630894,-1.0853217,30.0,2,-0.043381672
-0.5865237,-6.8135567,-1.0831524,28.0,3,-0.043377064
-1.0657134,-12.354995,1.5226357,60.0,11,-0.04337476
-0.7714564,-8.925444,-1.0999928,41.0,4,-0.043372456
-1.051782,-12.143977,-1.0664377,50.0,5,-0.043367848
-1.7550526,-20.182034,-1.0616874,28.0,6,-0.04336324
-1.0701725,-12.232125,3.290108,23.0,15,-0.04335633
-0.40612563,-4.5595393,-1.0568202,7.0,1,-0.043330982
-1.056569,-11.8386345,0.62290263,23.0,9,-0.04332868
-0.4893596,-5.4831715,-1.0700569,30.0,2,-0.043326374
-4.982502,-55.71799,4.8941436,40.0,10,-0.043324072
-0.61418164,-6.854753,-1.0900354,28.0,3,-0.043321766
-1.1077691,-12.339335,1.5211732,52.0,11,-0.043319464
-0.8106116,-9.011666,-1.110961,46.0,4,-0.04331716
-1.0862972,-12.05292,-1.0587679,52.0,5,-0.043312553
-4.4829297,-49.643066,9.6889,30.0,13,-0.043310247
-1.8128902,-20.036545,-1.0543603,21.0,6,-0.043307945
-1.1130079,-12.277383,2.8460808,46.0,14,-0.04330564
-5.1097775,-56.255814,-0.9859912,25.0,7,-0.043303337
-1.1137385,-12.237935,3.2926962,44.0,15,-0.04330103
-0.4283274,-4.6260095,-1.0725666,7.0,1,-0.043275688
-1.110185,-11.990189,0.63106704,31.0,9,-0.043273382
-0.5115795,-5.5146623,-1.0765444,35.0,2,-0.04327108
-0.64488304,-6.925341,-1.1016116,23.0,3,-0.04326647
-0.84852856,-9.07796,-1.1194919,33.0,4,-0.043261863
-4.9153214,-52.58643,8.365178,14.0,12,-0.04325956
-1.130221,-12.0688925,-1.060511,52.0,5,-0.043257255
-1.170604,-12.476658,2.4358678,5.0,13,-0.043254953
-1.9130986,-20.35223,-1.0713172,21.0,6,-0.043252647
-1.1609735,-12.327747,2.8586779,48.0,14,-0.043250345
-5.280553,-56.071323,-0.98305917,51.0,7,-0.04324804
-1.1548597,-12.239943,3.294249,17.0,15,-0.043245737
-0.43808204,-4.566369,-1.0590695,6.0,1,-0.043220393
-1.1464908,-11.928585,0.62803155,16.0,9,-0.043218087
-0.5368477,-5.575378,-1.0887562,30.0,2,-0.043215785
-5.374413,-55.713577,4.896932,40.0,10,-0.04321348
-0.6790342,-7.039173,-1.1200709,30.0,3,-0.043211177
-1.1718743,-12.126018,1.4958245,56.0,11,-0.04320887
-0.8782452,-9.071143,-1.1190044,37.0,4,-0.04320657
-1.2233678,-12.612852,2.0070546,3.0,12,-0.043204263
-1.1725341,-12.066857,-1.0606854,50.0,5,-0.04320196
-1.2146288,-12.500066,2.4412105,31.0,13,-0.043199655
-1.987739,-20.419323,-1.07519,24.0,6,-0.043197352
-1.195606,-12.259826,2.843831,47.0,14,-0.043195046
-5.477019,-56.060513,-0.98319876,25.0,7,-0.043192744
-5.571988,-56.121487,0.9844204,12.0,8,-0.0431674
-0.46077016,-4.632683,-1.0748161,6.0,1,-0.043165095
-1.2239949,-12.306309,0.64812857,16.0,9,-0.043162793
-0.55864197,-5.606778,-1.0952437,17.0,2,-0.043160487
-5.5435123,-55.538826,4.883162,20.0,10,-0.043158185
-0.7094985,-7.095727,-1.129457,30.0,3,-0.04315588
-1.215778,-12.137655,1.4977744,70.0,11,-0.043153577
-0.9010013,-8.995099,-1.1099861,43.0,4,-0.04315127
-6.022206,-60.01675,9.553454,21.0,12,-0.04314897
-1.2103512,-12.041096,-1.0587679,50.0,5,-0.043146662
-1.2606155,-12.519189,2.4457898,57.0,13,-0.04314436
-2.0519886,-20.34271,-1.0715265,23.0,6,-0.043142054
-1.2397741,-12.290694,2.8519294,18.0,14,-0.043139752
-5.744386,-55.96942,0.98208183,36.0,8,-0.043112103
-0.47333953,-4.6039896,-1.0685174,5.0,1,-0.0431098
-1.2641835,-12.296222,0.6478145,6.0,9,-0.043107495
-0.58909833,-5.7201176,-1.1177591,27.0,2,-0.043105192
-0.73424345,-7.105125,-1.1313342,30.0,3,-0.043100584
-1.2592906,-12.16515,1.5016742,28.0,11,-0.04309828
-0.93225527,-9.005883,-1.1116923,28.0,4,-0.043095976
-1.2484223,-12.01918,-1.0571991,50.0,5,-0.043091368
-1.3214238,-12.700447,2.4820435,45.0,13,-0.043089062
-2.1047373,-20.194754,-1.0640948,18.0,6,-0.04308676
-5.928476,-55.936142,0.9818375,12.0,8,-0.04305681
-0.49683362,-4.6799088,-1.0865136,3.0,1,-0.043054502
-1.2906245,-12.136821,0.6396501,30.0,9,-0.0430522
-0.6080639,-5.718133,-1.1177591,29.0,2,-0.043049894
-1.3347493,-12.530978,1.1025201,46.0,10,-0.043047592
-0.7571716,-7.096758,-1.1303955,35.0,3,-0.043045286
-1.3240948,-12.389874,1.5299479,36.0,11,-0.043042984
-0.9782661,-9.138766,-1.1285102,46.0,4,-0.043040678
