x,y,z,intensity,ring,time
34.849148,21.514862,6.4867125,15.0,12,-0.09240946
3.1363606,1.9362991,-0.32247624,37.0,5,-0.09240716
3.692051,2.277589,-0.22734742,36.0,6,-0.092402555
33.658836,20.755669,9.129414,20.0,14,-0.092400245
4.177395,2.5749776,-0.08565642,28.0,7,-0.09239794
25.99946,16.02002,8.182823,19.0,15,-0.09239564
1.9998169,1.2288525,-0.6289303,42.0,0,-0.092374906
5.060659,3.10847,0.10366729,42.0,8,-0.0923726
2.0625703,1.2664232,-0.55877846,44.0,1,-0.092370294
6.107545,3.748576,0.37556285,29.0,9,-0.09236799
2.2588646,1.3864042,-0.5151843,41.0,2,-0.09236569
8.297629,5.090772,0.8516859,24.0,10,-0.09236339
2.5039961,1.535655,-0.46523616,32.0,3,-0.09236108
12.78261,7.8362627,1.8409585,44.0,11,-0.092358775
2.823206,1.730063,-0.40655616,38.0,4,-0.09235647
34.27718,20.99688,6.3665705,14.0,12,-0.09235417
3.192369,1.9555223,-0.32753128,32.0,5,-0.09235186
3.7255313,2.2803266,-0.2289175,40.0,6,-0.09234726
33.747692,20.648245,9.133912,20.0,14,-0.092344955
4.1812387,2.5572505,-0.0855517,31.0,7,-0.092342645
25.82612,15.789094,8.110871,38.0,15,-0.09234034
1.9974968,1.2178415,-0.6268598,43.0,0,-0.09231961
5.0339117,3.0678926,0.10289939,38.0,8,-0.092317306
2.0603216,1.2551597,-0.5569788,40.0,1,-0.092315
6.084771,3.7054176,0.37336475,40.0,9,-0.09231269
2.260337,1.3764681,-0.51442105,49.0,2,-0.09231039
8.328963,5.0700665,0.8530804,33.0,10,-0.09230809
2.5414045,1.5464143,-0.47118065,47.0,3,-0.09230579
11.758368,7.152007,1.6898406,2.0,11,-0.09230348
2.8394043,1.7263858,-0.4080186,36.0,4,-0.092301175
34.294567,20.843239,6.3562465,14.0,12,-0.09229887
3.1736374,1.9288443,-0.3249166,46.0,5,-0.09229657
3.6924975,2.2424278,-0.22640537,31.0,6,-0.09229196
33.46308,20.313902,9.037634,28.0,14,-0.09228966
4.2021074,2.5499005,-0.085796036,33.0,7,-0.092287354
33.42291,20.273552,10.474407,21.0,15,-0.09228505
2.001735,1.2108629,-0.6268598,49.0,0,-0.09226431
5.1010604,3.084446,0.10405125,27.0,8,-0.09226201
2.0880394,1.2620724,-0.5632775,32.0,1,-0.092259705
6.017321,3.6356153,0.3684452,29.0,9,-0.0922574
2.2886522,1.3827846,-0.51976377,51.0,2,-0.09225509
8.33979,5.0368404,0.8523832,33.0,10,-0.09225279
2.5129657,1.5171143,-0.4649233,36.0,3,-0.09225049
12.718031,7.675042,1.8238968,40.0,11,-0.09224819
2.8182175,1.7000574,-0.40411878,36.0,4,-0.09224588
34.287613,20.67545,6.3415413,7.0,12,-0.092243575
3.1735268,1.9136385,-0.32421938,42.0,5,-0.09224127
34.233784,20.634865,7.7697425,15.0,13,-0.09223897
3.7396493,2.253231,-0.22881283,36.0,6,-0.09223667
33.478703,20.16378,9.022786,32.0,14,-0.09223436
4.25381,2.5610049,-0.08666865,28.0,7,-0.092232056
33.205467,19.983423,10.384338,20.0,15,-0.092229754
2.0125754,1.2078439,-0.6289303,44.0,0,-0.09220902
5.0226245,3.0131311,0.1022362,38.0,8,-0.09220671
2.1158297,1.2688074,-0.5695761,44.0,1,-0.09220441
6.170447,3.698791,0.3770283,34.0,9,-0.092202105
2.298517,1.3778149,-0.52090853,49.0,2,-0.0921998
8.417139,5.0435386,0.858484,30.0,10,-0.09219749
2.4843526,1.4880332,-0.4586659,39.0,3,-0.09219519
12.640854,7.5683947,1.8090287,42.0,11,-0.09219289
2.8547952,1.7085587,-0.4085061,33.0,4,-0.092190586
3.180187,1.9025497,-0.32421938,39.0,5,-0.092185974
34.312347,20.519264,7.771269,15.0,13,-0.09218367
3.7012064,2.212494,-0.22598669,31.0,6,-0.09218137
33.66598,20.116776,9.05428,32.0,14,-0.09217907
4.2901926,2.5625465,-0.08722713,30.0,7,-0.09217676
33.255127,19.855503,10.378127,20.0,15,-0.092174456
2.0034997,1.1929052,-0.6247892,42.0,0,-0.09215372
5.048578,3.0047836,0.10255034,34.0,8,-0.09215142
2.0934498,1.2454715,-0.56237763,34.0,1,-0.09214911
6.1277533,3.6456292,0.37367877,34.0,9,-0.09214681
2.3286235,1.3848363,-0.52663285,43.0,2,-0.092144504
8.436402,5.01515,0.8586583,22.0,10,-0.0921422
2.533685,1.5055883,-0.4668005,44.0,3,-0.0921399
12.551138,7.45529,1.7924545,46.0,11,-0.09213759
2.841965,1.6874369,-0.40582496,34.0,4,-0.09213529
3.2039425,1.9016054,-0.32596248,39.0,5,-0.09213068
34.33312,20.369307,7.759821,15.0,13,-0.09212837
3.695162,2.191413,-0.2251493,29.0,6,-0.09212607
33.218018,19.69206,8.91526,34.0,14,-0.09212377
4.2608247,2.5258706,-0.08645923,31.0,7,-0.09212147
33.433792,19.81209,10.413325,20.0,15,-0.09211916
2.0209587,1.193764,-0.6289303,44.0,0,-0.09209842
5.098116,3.0114157,0.10335316,27.0,8,-0.09209612
2.112671,1.2474403,-0.56642675,41.0,1,-0.09209382
6.1628003,3.6374156,0.3750395,43.0,9,-0.092091516
2.3148434,1.365725,-0.52243507,35.0,2,-0.092089206
8.313133,4.9026756,0.8443648,22.0,10,-0.092086904
2.5386634,1.4971783,-0.4668005,35.0,3,-0.0920846
12.671556,7.4700785,1.8061038,48.0,11,-0.0920823
2.8304431,1.6679244,-0.40338758,31.0,4,-0.09207999
30.88696,18.193815,5.6776333,6.0,12,-0.09207769
3.2139943,1.8924325,-0.32631108,40.0,5,-0.092075385
34.56965,20.354961,7.7979827,15.0,13,-0.09207308
3.673148,2.1619236,-0.22336988,37.0,6,-0.09207077
33.32344,19.605518,8.926058,15.0,14,-0.09206847
4.2127323,2.47753,-0.08530736,33.0,7,-0.09206617
34.095623,20.043808,10.597606,22.0,15,-0.09206387
2.0015738,1.1733782,-0.6216834,41.0,0,-0.09204313
5.0999703,2.9885452,0.10317863,36.0,8,-0.09204082
2.1186936,1.2410437,-0.56687665,43.0,1,-0.09203852
6.1409883,3.595699,0.37294605,40.0,9,-0.09203622
2.3346071,1.3669697,-0.5258696,33.0,2,-0.092033915
8.071419,4.724117,0.8182181,22.0,10,-0.092031606
2.5302336,1.480328,-0.46429756,39.0,3,-0.0920293
12.646145,7.3957396,1.7987916,42.0,11,-0.092027
2.803687,1.6389985,-0.3987565,33.0,4,-0.0920247
30.950277,18.085896,5.6776333,6.0,12,-0.09202239
3.2133708,1.8777438,-0.32561383,39.0,5,-0.09202009
3.694471,2.1571445,-0.22420727,30.0,6,-0.09201548
33.37484,19.479265,8.921559,27.0,14,-0.09201317
4.2248087,2.4648263,-0.08537717,33.0,7,-0.09201087
33.664745,19.632696,10.442313,21.0,15,-0.09200857
2.0039878,1.1654124,-0.62116575,46.0,0,-0.09198783
5.0118284,2.913442,0.101189055,34.0,8,-0.09198553
2.1297529,1.2375562,-0.5686763,43.0,1,-0.09198322
6.0896025,3.537123,0.3690732,39.0,9,-0.09198092
2.3750157,1.3795191,-0.5338836,37.0,2,-0.09197862
8.26016,4.795956,0.83564925,33.0,10,-0.091976315
2.5729723,1.4933007,-0.47118065,46.0,3,-0.091974005
12.5705805,7.292775,1.7844112,36.0,11,-0.0919717
2.824846,1.638165,-0.4009502,35.0,4,-0.0919694
30.951694,17.942074,5.6663694,6.0,12,-0.0919671
3.1837082,1.8455315,-0.32195333,34.0,5,-0.09196479
3.6864233,2.1352265,-0.22326522,36.0,6,-0.091960184
33.444324,19.363615,8.9220085,31.0,14,-0.09195788
4.2420416,2.4550712,-0.0855517,30.0,7,-0.09195558
33.59595,19.435747,10.399868,20.0,15,-0.09195327
1.9996766,1.1535839,-0.61857754,43.0,0,-0.091932535
5.1120477,2.9478757,0.103004105,38.0,8,-0.09193023
2.1391244,1.2330344,-0.570026,50.0,1,-0.09192793
6.09845,3.5138514,0.36886385,39.0,9,-0.09192562
2.313474,1.332995,-0.5190005,31.0,2,-0.09192332
7.962627,4.5861163,0.8039245,22.0,10,-0.09192102
2.547355,1.4665687,-0.46554902,40.0,3,-0.091918714
12.563269,7.2300415,1.77978,40.0,11,-0.091916405
2.8408709,1.6342341,-0.4024126,34.0,4,-0.0919141
30.995304,17.823084,5.662928,12.0,12,-0.0919118
3.188404,1.833413,-0.32177898,43.0,5,-0.0919095
34.249847,19.686596,7.678918,14.0,13,-0.091907196
3.685196,2.1173697,-0.22274184,37.0,6,-0.091904886
33.455948,19.214714,8.907162,15.0,14,-0.091902584
4.2783318,2.4561791,-0.08611017,33.0,7,-0.09190028
33.80434,19.399118,10.443349,10.0,15,-0.09189798
2.0087216,1.1494747,-0.6201305,46.0,0,-0.09187724
5.0927973,2.9131355,0.102410726,34.0,8,-0.091874935
2.129882,1.217821,-0.56642675,50.0,1,-0.09187263
6.0621266,3.4647906,0.36593303,39.0,9,-0.09187033
2.306182,1.3180915,-0.51632917,37.0,2,-0.09186803
8.023565,4.5839925,0.8084566,19.0,10,-0.09186572
2.5490277,1.4557092,-0.4649233,44.0,3,-0.091863416
12.533264,7.154648,1.7719804,38.0,11,-0.091861114
2.8431094,1.6223407,-0.40192512,47.0,4,-0.09185881
30.90633,17.628662,5.635396,12.0,12,-0.0918565
3.269202,1.8647201,-0.3292744,33.0,5,-0.0918542
34.34224,19.580526,7.6842604,15.0,13,-0.0918519
3.6821527,2.09856,-0.22211383,41.0,6,-0.091849595
33.24512,18.939623,8.833378,26.0,14,-0.091847286
4.2486515,2.4194589,-0.08534227,31.0,7,-0.09184498
33.932285,19.31541,10.461984,21.0,15,-0.09184268
1.999281,1.1348271,-0.6159893,39.0,0,-0.091821946
5.076847,2.8805366,0.10188715,27.0,8,-0.091819644
2.117169,1.2007656,-0.56192774,48.0,1,-0.091817334
6.089821,3.4524753,0.36687508,37.0,9,-0.09181503
2.3261397,1.3187481,-0.51976377,39.0,2,-0.09181273
8.228459,4.663027,0.8274566,27.0,10,-0.09181043
2.5540934,1.4468031,-0.4649233,41.0,3,-0.09180812
12.5909815,7.1294417,1.7766114,46.0,11,-0.091805816
2.8401177,1.6075168,-0.40070644,36.0,4,-0.09180351
30.159622,17.063484,5.4883475,11.0,12,-0.09180121
3.2947667,1.8640884,-0.3311918,29.0,5,-0.0917989
3.694671,2.0886433,-0.22242783,40.0,6,-0.0917943
33.266926,18.798525,8.821681,11.0,14,-0.091791995
4.2048364,2.37511,-0.084295124,31.0,7,-0.091789685
34.198,19.308935,10.523065,10.0,15,-0.09178738
2.0217478,1.1382664,-0.6216834,48.0,0,-0.09176665
4.9945097,2.8108168,0.100037195,38.0,8,-0.091764346
2.1213472,1.1933684,-0.56192774,37.0,1,-0.09176204
6.0652776,3.4106376,0.36467698,32.0,9,-0.091759734
2.3187504,1.3038838,-0.5170924,37.0,2,-0.09175743
8.222108,4.621582,0.82519054,22.0,10,-0.09175513
2.5970151,1.459167,-0.47180638,49.0,3,-0.09175283
12.520599,7.0319796,1.7632058,24.0,11,-0.09175052
2.8387885,1.5937052,-0.3997315,38.0,4,-0.091748215
30.034666,16.854687,5.4548707,11.0,12,-0.09174591
3.2352273,1.8155268,-0.32456797,31.0,5,-0.09174361
40.5395,22.740406,9.035188,25.0,13,-0.0917413
3.7036822,2.0767097,-0.22253251,41.0,6,-0.091739
33.23033,18.625141,8.794686,18.0,14,-0.0917367
4.1921678,2.348688,-0.08387627,28.0,7,-0.091734394
34.292168,19.204538,10.531347,10.0,15,-0.091732085
2.0189617,1.1274351,-0.6196128,42.0,0,-0.09171135
5.068896,2.829429,0.10132867,46.0,8,-0.09170905
2.140816,1.1945014,-0.56597686,40.0,1,-0.091706745
6.0782976,3.3914797,0.36478165,32.0,9,-0.09170444
2.3232877,1.2957813,-0.5170924,38.0,2,-0.09170213
8.31302,4.6345735,0.832686,30.0,10,-0.09169983
2.6020932,1.4500921,-0.47180638,57.0,3,-0.09169753
12.352576,6.8809996,1.7361507,22.0,11,-0.09169523
2.830459,1.5760611,-0.39778158,36.0,4,-0.09169292
29.910908,16.655043,5.4223323,16.0,12,-0.091690615
3.2537317,1.8110046,-0.32578817,34.0,5,-0.09168831
41.47301,23.074087,9.225234,26.0,13,-0.09168601
3.6986897,2.0569744,-0.22179982,41.0,6,-0.0916837
33.223614,18.469255,8.77579,18.0,14,-0.0916814
4.1667247,2.3163135,-0.083213076,30.0,7,-0.091679096
34.50765,19.175158,10.577935,10.0,15,-0.091676794
2.0228844,1.1203811,-0.6196128,43.0,0,-0.09165606
4.9977818,2.7680376,0.09972305,34.0,8,-0.09165375
2.1328316,1.1807879,-0.5628275,41.0,1,-0.09165145
6.130291,3.3924859,0.3671891,34.0,9,-0.091649145
2.3312318,1.2895659,-0.51785564,34.0,2,-0.09164684
8.292532,4.585279,0.8290254,22.0,10,-0.09164453
2.6172602,1.4471898,-0.47368363,43.0,3,-0.09164223
12.427447,6.86881,1.7434629,44.0,11,-0.09163993
2.8252442,1.5609069,-0.39631912,33.0,4,-0.09163763
29.49852,16.290773,5.3372316,11.0,12,-0.09163532
3.2617784,1.8005981,-0.32596248,42.0,5,-0.091633014
41.360233,22.832071,9.183256,26.0,13,-0.09163071
3.6897519,2.0360143,-0.22085775,36.0,6,-0.09162841
33.06285,18.236618,8.717303,15.0,14,-0.09162611
4.2343254,2.3345811,-0.08439984,33.0,7,-0.0916238
34.784157,19.170235,10.642122,11.0,15,-0.091621496
2.0248961,1.112736,-0.6190952,45.0,0,-0.09160076
5.023188,2.7592385,0.100037195,36.0,8,-0.09159846
2.1540213,1.1827164,-0.56732655,45.0,1,-0.09159615
6.2167873,3.4134746,0.37169,32.0,9,-0.09159385
2.3527067,1.2912736,-0.52167183,34.0,2,-0.091591544
8.14,4.465758,0.8122915,22.0,10,-0.09158924
2.6119027,1.4323478,-0.47180638,45.0,3,-0.09158693
12.465272,6.833024,1.7454128,36.0,11,-0.09158463
2.7958584,1.5319569,-0.39144436,38.0,4,-0.09158233
29.609547,16.224194,5.3475566,16.0,12,-0.091580026
3.271225,1.7916881,-0.32631108,38.0,5,-0.09157772
3.6915805,2.0202446,-0.22054374,37.0,6,-0.09157311
33.010056,18.05749,8.686709,21.0,14,-0.09157081
4.2157288,2.30613,-0.08387627,31.0,7,-0.09156851
34.40345,18.81194,10.5065,10.0,15,-0.0915662
2.0202868,1.1010381,-0.616507,41.0,0,-0.09154546
5.120105,2.790411,0.10178243,42.0,8,-0.09154316
2.1733334,1.1839566,-0.57137567,62.0,1,-0.09154086
6.147979,3.347814,0.36687508,32.0,9,-0.091538556
2.295123,1.2492633,-0.50793356,53.0,2,-0.091536246
8.113536,4.4144654,0.80810803,19.0,10,-0.091533944
2.6426663,1.437839,-0.47649944,50.0,3,-0.09153164
12.386717,6.7366443,1.731276,28.0,11,-0.09152934
2.7991793,1.521728,-0.3912006,39.0,4,-0.09152703
29.421267,15.987756,5.3034415,11.0,12,-0.09152473
3.2774596,1.7802576,-0.32631108,43.0,5,-0.091522425
40.855656,22.192062,9.0374775,25.0,13,-0.09152012
3.6824632,1.9994137,-0.21960169,36.0,6,-0.09151781
32.922443,17.868006,8.648018,25.0,14,-0.09151551
4.190355,2.2732856,-0.083213076,31.0,7,-0.09151321
37.481564,20.32542,11.42479,13.0,15,-0.09151091
2.0358222,1.1007649,-0.6201305,38.0,0,-0.09149017
5.1139793,2.763968,0.10146829,46.0,8,-0.09148786
2.189455,1.1828463,-0.574525,48.0,1,-0.09148556
6.185406,3.3416467,0.3684452,35.0,9,-0.09148326
2.2819781,1.2323173,-0.5041174,60.0,2,-0.091480955
8.254363,4.4556785,0.82065845,24.0,10,-0.091478646
2.6007311,1.4032785,-0.46805197,44.0,3,-0.09147634
12.385698,6.6801696,1.7278637,40.0,11,-0.09147404
2.834178,1.5279642,-0.3953442,32.0,4,-0.09147174
28.524742,15.378282,5.1326156,10.0,12,-0.09146943
3.2552829,1.7542555,-0.32352212,46.0,5,-0.09146713
40.673615,21.909647,8.980235,24.0,13,-0.091464825
3.6683164,1.9751875,-0.21834564,28.0,6,-0.09146252
33.156216,17.845324,8.693008,26.0,14,-0.09146021
4.2137184,2.2679057,-0.083527215,24.0,7,-0.09145791
33.703884,18.132504,10.254929,10.0,15,-0.09145561
2.0243287,1.085436,-0.6154717,32.0,0,-0.09143487
5.063198,2.7148643,0.10028153,40.0,8,-0.09143257
2.1452725,1.1498035,-0.56192774,39.0,1,-0.09143026
6.093163,3.2643852,0.36226952,32.0,9,-0.09142796
2.3001113,1.2317593,-0.5071704,45.0,2,-0.09142566
7.943148,4.2519436,0.78823656,19.0,10,-0.091423355
2.598404,1.3909179,-0.4668005,44.0,3,-0.091421045
12.476045,6.675582,1.7373695,52.0,11,-0.09141874
2.8252263,1.5110669,-0.39339426,28.0,4,-0.09141644
28.62877,15.305619,5.1416883,15.0,12,-0.09141414
3.2719302,1.7485152,-0.32456797,46.0,5,-0.09141183
42.131264,22.514893,9.285529,27.0,13,-0.09140953
3.7100801,1.9818318,-0.22043908,30.0,6,-0.091407225
33.47822,17.875717,8.761844,30.0,14,-0.09140492
4.1792707,2.2305846,-0.08268951,28.0,7,-0.09140262
33.715836,17.98747,10.239399,20.0,15,-0.09140031
2.0419402,1.0852629,-0.6196128,40.0,0,-0.09132266
5.034734,2.674764,0.09951362,38.0,8,-0.09132036
2.182373,1.1589228,-0.5704759,53.0,1,-0.091318056
6.0927386,3.235475,0.36153683,37.0,9,-0.09131575
2.3288872,1.2362078,-0.512513,43.0,2,-0.091313444
8.025558,4.2582903,0.7948604,22.0,10,-0.09131114
2.6141963,1.3864831,-0.4686777,49.0,3,-0.09130884
12.422659,6.5857897,1.7264012,38.0,11,-0.09130653
2.8152213,1.4918414,-0.3912006,31.0,4,-0.09130423
28.681192,15.19873,5.141063,15.0,12,-0.091301925
3.26071,1.727186,-0.32282487,43.0,5,-0.09129962
3.6241038,1.9180545,-0.21489146,23.0,6,-0.09129501
33.529392,17.737919,8.757344,30.0,14,-0.09129271
4.2033257,2.2236683,-0.08300364,31.0,7,-0.09129041
33.907917,17.930595,10.277705,20.0,15,-0.0912881
2.0252082,1.0673199,-0.6134012,32.0,0,-0.09126736
4.958662,2.6133008,0.09783819,34.0,8,-0.09126506
2.1827555,1.1498634,-0.5695761,46.0,1,-0.09126276
6.179985,3.2542036,0.36603773,35.0,9,-0.091260456
2.352299,1.2381291,-0.5167108,44.0,2,-0.091258146
8.091508,4.25715,0.7999154,33.0,10,-0.09125584
2.6257722,1.3814862,-0.4699292,46.0,3,-0.09125354
12.435645,6.539942,1.7251827,52.0,11,-0.09125124
2.8254242,1.4852692,-0.39193183,33.0,4,-0.09124893
28.718327,15.090258,5.138247,5.0,12,-0.09124663
3.2773023,1.7213527,-0.32387072,43.0,5,-0.091244325
35.988964,18.90265,7.9017825,16.0,13,-0.09124202
3.5791614,1.879103,-0.21185598,28.0,6,-0.09123971
33.567318,17.615774,8.7519455,30.0,14,-0.09123741
4.2500215,2.2294178,-0.08377155,30.0,7,-0.09123511
34.042152,17.84981,10.299446,20.0,15,-0.09123281
2.001344,1.0462781,-0.60511893,34.0,0,-0.09121207
5.012062,2.619128,0.09871081,30.0,8,-0.09120976
2.2092106,1.1539667,-0.5754248,51.0,1,-0.09120746
6.1275706,3.1993315,0.36226952,37.0,9,-0.09120516
2.3424695,1.2230519,-0.51365787,46.0,2,-0.091202855
8.031398,4.1915755,0.7925943,24.0,10,-0.091200545
2.6218214,1.3677444,-0.46836486,45.0,3,-0.09119824
2.8217902,1.4708091,-0.39071316,39.0,4,-0.09119364
24.3246,12.673391,4.3441854,4.0,12,-0.09119133
3.2903597,1.7135828,-0.32456797,40.0,5,-0.09118903
35.992043,18.744255,7.888044,33.0,13,-0.091186725
3.668964,1.9099414,-0.21677555,22.0,6,-0.09118442
33.65626,17.512896,8.759145,30.0,14,-0.09118212
4.229392,2.199806,-0.083213076,30.0,7,-0.09117981
33.271236,17.297773,10.0478735,19.0,15,-0.09117751
1.9708599,1.0211606,-0.5947662,27.0,0,-0.09115677
4.9856625,2.5832186,0.098012716,34.0,8,-0.09115447
2.19073,1.1345968,-0.5695761,54.0,1,-0.09115216
6.1564374,3.1871064,0.36331624,40.0,9,-0.09114986
2.3347309,1.2081428,-0.5109865,44.0,2,-0.09114756
8.057323,4.1676044,0.7936402,24.0,10,-0.091145255
2.6391003,1.3644757,-0.47055492,43.0,3,-0.091142945
12.415755,6.4192324,1.7161642,44.0,11,-0.09114064
2.848069,1.4718876,-0.393638,40.0,4,-0.09113834
24.373959,12.59112,4.3451242,16.0,12,-0.09113604
3.257374,1.6819768,-0.32073313,42.0,5,-0.091133736
3.6901386,1.9038079,-0.21761292,27.0,6,-0.091129124
33.708107,17.38316,8.755995,22.0,14,-0.09112682
4.2121625,2.1721985,-0.08272441,31.0,7,-0.09112452
33.31424,17.172684,10.042697,9.0,15,-0.09112221
2.003625,1.0292808,-0.603566,25.0,0,-0.091101475
4.9844246,2.559446,0.09780329,40.0,8,-0.09109917
2.1810038,1.1194414,-0.56597686,56.0,1,-0.09109687
6.1218753,3.1408145,0.36059478,37.0,9,-0.09109456
2.3459213,1.2035697,-0.512513,45.0,2,-0.09109226
8.031047,4.1185403,0.789631,24.0,10,-0.09108996
2.610447,1.3381348,-0.4646104,33.0,3,-0.091087654
12.543436,6.4270883,1.7305448,52.0,11,-0.09108535
2.8375435,1.453294,-0.39144436,38.0,4,-0.09108304
24.375982,12.479201,4.3373027,8.0,12,-0.09108074
3.2171142,1.6469907,-0.31620103,38.0,5,-0.09107844
3.6665337,1.8754524,-0.2158335,21.0,6,-0.091073826
33.987198,17.377176,8.812683,26.0,14,-0.091071524
4.273515,2.184045,-0.08377155,28.0,7,-0.09106922
34.629395,17.690258,10.419538,10.0,15,-0.09106692
1.9693332,1.0029937,-0.592178,27.0,0,-0.09104618
4.959469,2.5247955,0.097140096,34.0,8,-0.091043875
2.1935825,1.1162399,-0.56822634,51.0,1,-0.09104157
6.1007557,3.1031313,0.35871068,27.0,9,-0.09103927
2.3308587,1.1855843,-0.50831515,38.0,2,-0.09103697
7.9139485,4.0236635,0.77673197,22.0,10,-0.09103466
2.5957313,1.3191693,-0.46116886,40.0,3,-0.091032356
12.495,6.347305,1.7207953,44.0,11,-0.091030054
2.8567586,1.4505708,-0.39339426,38.0,4,-0.09102775
23.81521,12.087376,4.2299886,24.0,12,-0.09102544
3.2512705,1.6501777,-0.31899,46.0,5,-0.09102314
44.558506,22.605825,9.712178,30.0,13,-0.09102084
3.5608351,1.805734,-0.20923917,27.0,6,-0.091018535
34.138035,17.304241,8.836078,15.0,14,-0.091016226
4.2490053,2.152845,-0.08314327,30.0,7,-0.09101392
34.518585,17.481993,10.367774,10.0,15,-0.09101162
1.9314346,0.9752153,-0.57975465,34.0,0,-0.090990886
4.9950304,2.520982,0.09766366,42.0,8,-0.090988584
2.1800666,1.0997992,-0.5637273,41.0,1,-0.090986274
6.087832,3.0711873,0.35734996,30.0,9,-0.09098397
2.326218,1.1730204,-0.5064071,38.0,2,-0.09098167
7.828313,3.9457927,0.7669705,33.0,10,-0.09097937
2.5226984,1.2709935,-0.44740263,36.0,3,-0.09097706
12.469208,6.2795453,1.7142143,38.0,11,-0.090974756
2.8830824,1.4512999,-0.39631912,36.0,4,-0.09097245
23.719305,11.939939,4.205898,23.0,12,-0.09097015
3.2605703,1.6406105,-0.31933865,42.0,5,-0.09096784
45.065094,22.665401,9.805293,30.0,13,-0.09096554
3.5581949,1.788807,-0.20871581,24.0,6,-0.09096324
34.264404,17.21821,8.853174,3.0,14,-0.090960935
4.290069,2.1558032,-0.083806455,26.0,7,-0.090958625
33.423183,16.788204,10.021991,19.0,15,-0.09095632
1.9711052,0.9866256,-0.59062505,40.0,0,-0.09093559
4.9729633,2.489189,0.097070284,44.0,8,-0.090933286
2.1418748,1.0716373,-0.5529297,39.0,1,-0.09093098
6.0199175,3.0106087,0.35274437,36.0,9,-0.090928674
2.3355672,1.1675261,-0.50755197,31.0,2,-0.09092637
7.843818,3.9193385,0.7671448,30.0,10,-0.09092407
2.5869794,1.2926419,-0.45804018,44.0,3,-0.09092177
12.443791,6.2150965,1.7078772,44.0,11,-0.09091946
2.8754466,1.4355252,-0.39461297,31.0,4,-0.090917155
23.511608,11.73272,4.161783,23.0,12,-0.09091485
3.241317,1.6167678,-0.3168983,40.0,5,-0.09091255
3.524784,1.7573928,-0.20641303,19.0,6,-0.09090794
34.105026,16.996733,8.797386,3.0,14,-0.09090564
4.2868285,2.1354663,-0.083597034,30.0,7,-0.090903334
33.533466,16.697258,10.03752,9.0,15,-0.09090103
1.9951309,0.99039084,-0.5968367,40.0,0,-0.09088029
4.933256,2.4478178,0.09612786,48.0,8,-0.09087799
2.1525857,1.067617,-0.5547293,37.0,1,-0.090875685
5.9820766,2.9656234,0.34991825,35.0,9,-0.09087338
2.3429441,1.1615181,-0.50831515,39.0,2,-0.09087107
7.888907,3.9092271,0.77028245,38.0,10,-0.09086877
2.6392696,1.307276,-0.46648762,30.0,3,-0.09086647
12.559699,6.2183,1.7207953,48.0,11,-0.09086417
2.8662064,1.4184362,-0.39266306,39.0,4,-0.09086186
23.426712,11.588387,4.1395693,19.0,12,-0.090859555
3.255871,1.609858,-0.31776983,37.0,5,-0.09085725
44.725574,22.114458,9.698441,30.0,13,-0.09085495
3.4610662,1.7105666,-0.20233083,22.0,6,-0.09085265
34.478645,17.032932,8.878368,3.0,14,-0.09085034
4.281706,2.1142907,-0.08335269,31.0,7,-0.090848036
33.539574,16.554457,10.021991,19.0,15,-0.090845734
2.0282173,0.99756676,-0.6056366,46.0,0,-0.090825
4.9327993,2.4261682,0.09595333,41.0,8,-0.09082269
2.144058,1.0540777,-0.55158,44.0,1,-0.09082039
5.9744644,2.9359195,0.34887153,35.0,9,-0.090818085
2.3577583,1.1581168,-0.5106049,41.0,2,-0.09081578
7.88351,3.8706257,0.76836497,33.0,10,-0.09081347
2.507496,1.2305825,-0.4423967,36.0,3,-0.09081117
12.536773,6.1525645,1.7147018,56.0,11,-0.09080887
2.8747048,1.4101703,-0.39315054,34.0,4,-0.090806566
23.355282,11.451745,4.1198583,27.0,12,-0.090804264
3.270415,1.6028695,-0.3186414,43.0,5,-0.090801954
3.5318878,1.7294898,-0.20609902,16.0,6,-0.09079735
34.645855,16.957859,8.905362,19.0,14,-0.09079505
4.3177958,2.1134005,-0.083911166,31.0,7,-0.09079274
33.59716,16.437273,10.021991,19.0,15,-0.090790436
2.0507882,0.9997936,-0.6113306,50.0,0,-0.0907697
4.9110985,2.3931818,0.09535995,37.0,8,-0.0907674
2.1461549,1.0453593,-0.55113006,39.0,1,-0.09076509
6.092412,2.967521,0.35515183,35.0,9,-0.09076279
2.3406045,1.1395675,-0.5060255,39.0,2,-0.090760484
7.843227,3.81693,0.7631357,33.0,10,-0.09075818
2.6272404,1.2779874,-0.4627332,32.0,3,-0.09075588
12.541389,6.097884,1.7122644,48.0,11,-0.09075357
2.8938923,1.4070706,-0.39510044,39.0,4,-0.09075127
22.773281,11.067943,4.0103545,14.0,12,-0.090748966
3.2759905,1.591443,-0.3186414,43.0,5,-0.09074666
3.5810263,1.7380818,-0.20861115,14.0,6,-0.09074205
34.554638,16.771389,8.867571,27.0,14,-0.09073975
4.3089557,2.090459,-0.083597034,33.0,7,-0.09073745
33.889,16.433681,10.091872,19.0,15,-0.09073514
2.052353,0.99214697,-0.61081296,41.0,0,-0.0907144
4.8901987,2.3629637,0.09480147,39.0,8,-0.0907121
2.165403,1.045864,-0.55517924,40.0,1,-0.0907098
5.992513,2.8943129,0.34876686,36.0,9,-0.090707496
2.2877939,1.1044863,-0.4938137,28.0,2,-0.090705186
7.8648133,3.7952316,0.7640073,38.0,10,-0.090702884
2.5923214,1.2503871,-0.45585006,34.0,3,-0.09070058
12.516836,6.0347185,1.706171,46.0,11,-0.09069828
2.889601,1.3931578,-0.39388174,36.0,4,-0.09069597
22.695967,10.937482,3.990331,21.0,12,-0.09069367
3.2704806,1.575382,-0.31759554,45.0,5,-0.090691365
34.935665,16.820929,7.5369554,14.0,13,-0.09068906
3.5165825,1.6924187,-0.20452894,18.0,6,-0.09068675
34.592506,16.648266,8.863071,27.0,14,-0.09068445
4.330281,2.0830925,-0.08387627,34.0,7,-0.09068215
34.0321,16.363914,10.118272,19.0,15,-0.09067985
2.0678263,0.9911803,-0.61443645,45.0,0,-0.09065911
4.8980083,2.3467326,0.09480147,43.0,8,-0.0906568
2.1635864,1.0361527,-0.5538295,41.0,1,-0.0906545
6.0007777,2.8725164,0.34866217,35.0,9,-0.0906522
2.289865,1.0956459,-0.4934321,35.0,2,-0.090649895
7.9887857,3.8224437,0.77481455,38.0,10,-0.090647586
2.6231844,1.2545687,-0.46054313,35.0,3,-0.09064528
12.692595,6.067661,1.7273762,50.0,11,-0.09064298
2.8926556,1.3822061,-0.393638,47.0,4,-0.09064068
22.64132,10.813915,3.9740617,21.0,12,-0.09063837
3.2579792,1.5553732,-0.3158524,45.0,5,-0.09063607
44.83861,21.396536,9.657226,29.0,13,-0.090633765
3.46298,1.6517575,-0.20107476,20.0,6,-0.09063146
34.660965,16.532438,8.865771,27.0,14,-0.09062915
4.3176694,2.0584989,-0.08349232,31.0,7,-0.09062685
34.14656,16.272453,10.135355,19.0,15,-0.09062455
2.0557396,0.97613645,-0.6097777,42.0,0,-0.09060381
4.910189,2.3304808,0.09487128,45.0,8,-0.09060151
2.1779332,1.0332279,-0.5565289,41.0,1,-0.0905992
6.0040474,2.8470788,0.34824347,35.0,9,-0.0905969
2.3630533,1.1200402,-0.50831515,52.0,2,-0.0905946
7.970333,3.777779,0.7716769,46.0,10,-0.090592295
2.5956316,1.2297229,-0.4549115,35.0,3,-0.090589985
12.748837,6.0372386,1.7320073,52.0,11,-0.09058768
2.9174385,1.3809375,-0.39631912,37.0,4,-0.09058538
22.4451,10.619348,3.9327629,32.0,12,-0.09058308
3.1699994,1.4991283,-0.3067882,42.0,5,-0.09058077
3.4672048,1.6382015,-0.20097008,30.0,6,-0.090576164
35.05962,16.565136,8.952152,15.0,14,-0.09057386
4.283598,2.023018,-0.08268951,31.0,7,-0.09057156
35.870842,16.933115,10.628663,22.0,15,-0.09056925
2.068044,0.97270685,-0.6123659,38.0,0,-0.090548515
4.927747,2.3167212,0.095045805,41.0,8,-0.09054621
2.1975791,1.0326972,-0.56057805,47.0,1,-0.09054391
6.0790234,2.8566844,0.35201168,42.0,9,-0.0905416
2.366949,1.1117841,-0.50831515,55.0,2,-0.0905393
7.9877343,3.7502327,0.7720256,38.0,10,-0.090537
2.56078,1.201738,-0.44802836,36.0,3,-0.090534694
12.805025,6.006491,1.7366383,52.0,11,-0.090532385
2.9168499,1.3682154,-0.39558792,34.0,4,-0.09053008
22.517805,10.557699,3.9390202,29.0,12,-0.09052778
3.213099,1.5058099,-0.31044877,34.0,5,-0.09052548
34.821205,16.311447,7.47437,14.0,13,-0.090523176
3.56696,1.6701276,-0.20641303,24.0,6,-0.090520866
35.58492,16.661627,9.071376,8.0,14,-0.090518564
4.28701,2.0063586,-0.08261969,30.0,7,-0.09051626
40.741837,19.05887,12.052168,15.0,15,-0.09051396
2.0519986,0.95686316,-0.60667187,43.0,0,-0.09049322
4.9009647,2.2843175,0.09438262,43.0,8,-0.090490915
2.1744947,1.0130602,-0.5538295,41.0,1,-0.09048861
6.0359597,2.8120513,0.3489762,33.0,9,-0.09048631
2.3937593,1.1147034,-0.5132762,52.0,2,-0.09048401
7.7201486,3.5934072,0.7450073,19.0,10,-0.0904817
2.5540044,1.1882404,-0.44615117,39.0,3,-0.0904794
12.833871,5.9681826,1.737857,52.0,11,-0.090477094
2.881771,1.3401207,-0.39022568,34.0,4,-0.09047479
22.455963,10.438001,3.9221253,21.0,12,-0.09047248
3.207233,1.4901102,-0.30940288,37.0,5,-0.09047018
34.78607,16.154531,7.4552894,14.0,13,-0.09046788
3.6286385,1.6843573,-0.20965785,28.0,6,-0.090465575
35.21753,16.347427,8.96385,27.0,14,-0.090463266
4.257361,1.9752996,-0.0819216,31.0,7,-0.09046096
34.302826,15.908285,10.131731,19.0,15,-0.09045866
2.0797105,0.9614016,-0.61391884,42.0,0,-0.09043793
4.9430027,2.2839904,0.095045805,37.0,8,-0.090435624
2.1813807,1.0074773,-0.5547293,41.0,1,-0.090433314
6.058433,2.7968228,0.34970888,40.0,9,-0.09043101
2.401201,1.1079867,-0.51403946,47.0,2,-0.09042871
7.8948393,3.6429174,0.76069534,22.0,10,-0.09042641
2.5686939,1.1847278,-0.44802836,44.0,3,-0.0904241
12.842778,5.920602,1.7363946,50.0,11,-0.090421796
2.866599,1.3209155,-0.38754454,29.0,4,-0.09041949
22.169304,10.210808,3.865809,24.0,12,-0.09041719
3.1834583,1.4655739,-0.3066139,36.0,5,-0.09041488
3.6471975,1.6775236,-0.21039055,28.0,6,-0.09041028
34.842384,16.02571,8.854074,26.0,14,-0.090407975
4.269681,1.9629315,-0.08202631,34.0,7,-0.090405665
34.400276,15.807816,10.144154,19.0,15,-0.09040336
2.0761938,0.95055616,-0.61184824,41.0,0,-0.09038263
4.951341,2.2658567,0.095045805,37.0,8,-0.090380326
2.1886027,1.0010971,-0.5556291,41.0,1,-0.09037802
6.0577445,2.7696176,0.34908086,40.0,9,-0.090375714
2.3838189,1.0893842,-0.50946003,52.0,2,-0.09037341
7.7196794,3.5278256,0.74256694,22.0,10,-0.09037111
2.585596,1.1810508,-0.45021844,32.0,3,-0.09036881
12.831885,5.858653,1.7320073,50.0,11,-0.0903665
2.858781,1.3046288,-0.38583836,34.0,4,-0.090364195
21.854319,9.968808,3.8044868,13.0,12,-0.09036189
3.1942465,1.4563764,-0.30713683,40.0,5,-0.09035959
3.680585,1.6765646,-0.21196064,25.0,6,-0.09035498
35.113693,15.9948435,8.908062,27.0,14,-0.09035268
4.287766,1.9522418,-0.082235746,34.0,7,-0.090350375
34.36655,15.640007,10.117236,9.0,15,-0.090348065
2.0691068,0.9381541,-0.6087424,42.0,0,-0.09032733
4.948685,2.2427402,0.094836384,41.0,8,-0.09032503
2.2082336,1.000305,-0.55967826,43.0,1,-0.090322725
6.0055194,2.7204332,0.34552202,38.0,9,-0.09032042
2.3768754,1.0761997,-0.5071704,67.0,2,-0.09031811
7.714405,3.4912946,0.74082375,22.0,10,-0.09031581
2.631303,1.1902909,-0.45741442,36.0,3,-0.09031351
12.885831,5.826307,1.7363946,54.0,11,-0.09031121
2.8852506,1.303953,-0.38876322,40.0,4,-0.0903089
21.33456,9.64189,3.708123,9.0,12,-0.090306595
3.210206,1.450138,-0.30818272,43.0,5,-0.09030429
3.7810786,1.7064282,-0.21740359,24.0,6,-0.09029968
34.882538,15.735414,8.834727,30.0,14,-0.09029738
4.2617445,1.9224608,-0.08160745,34.0,7,-0.09029508
34.449104,15.532679,10.125519,9.0,15,-0.090292774
2.0706074,0.93013376,-0.6082248,45.0,0,-0.09027204
4.9360294,2.217305,0.094452426,43.0,8,-0.09026973
2.215094,0.9945727,-0.56057805,53.0,1,-0.09026743
5.960313,2.6749218,0.34238186,38.0,9,-0.090265125
2.3824093,1.068699,-0.50755197,69.0,2,-0.09026282
7.579287,3.3983166,0.72670454,27.0,10,-0.09026051
2.597384,1.1645863,-0.4508442,29.0,3,-0.09025821
12.926819,5.793282,1.7393193,54.0,11,-0.09025591
2.9149213,1.30574,-0.39217559,35.0,4,-0.09025361
21.108469,9.451112,3.6630697,19.0,12,-0.0902513
3.2170665,1.4397379,-0.308357,37.0,5,-0.090248995
3.7356675,1.6710458,-0.21447276,24.0,6,-0.09024439
35.14979,15.71589,8.889166,27.0,14,-0.09024209
4.27208,1.9092054,-0.081677265,37.0,7,-0.09023978
35.62494,15.913436,10.454737,10.0,15,-0.090237476
2.057797,0.9161898,-0.603566,42.0,0,-0.09021674
4.9218154,2.1903062,0.09403357,37.0,8,-0.09021444
2.2221127,0.98841995,-0.56147784,45.0,1,-0.09021213
5.930828,2.6380968,0.34018376,33.0,9,-0.09020983
2.3715887,1.0544114,-0.504499,63.0,2,-0.090207525
7.645134,3.3974428,0.73193395,38.0,10,-0.09020522
2.6140695,1.1611276,-0.45303425,37.0,3,-0.09020291
12.923378,5.7376485,1.7361507,52.0,11,-0.09020061
2.9303486,1.3003875,-0.393638,35.0,4,-0.09019831
21.233583,9.422731,3.679339,26.0,12,-0.090196006
3.2236443,1.4298705,-0.3085313,40.0,5,-0.090193704
3.7341743,1.654758,-0.21405408,23.0,6,-0.09018909
35.111774,15.552084,8.865771,27.0,14,-0.09018679
4.27473,1.8934095,-0.08160745,34.0,7,-0.09018449
35.741116,15.823357,10.473372,10.0,15,-0.09018218
2.071587,0.91368014,-0.60667187,42.0,0,-0.09016144
4.892458,2.157834,0.093335465,46.0,8,-0.09015914
2.207547,0.97318417,-0.5569788,40.0,1,-0.09015684
5.9400015,2.6173768,0.34018376,38.0,9,-0.090154536
2.3878312,1.0516676,-0.5071704,74.0,2,-0.09015223
7.64783,3.3667197,0.73106235,33.0,10,-0.090149924
2.5962105,1.1429012,-0.44927984,44.0,3,-0.09014762
12.909628,5.6803737,1.7317636,50.0,11,-0.09014532
2.9001186,1.2754806,-0.38900697,36.0,4,-0.09014301
21.233793,9.33425,3.6737075,26.0,12,-0.09014071
3.2030787,1.4073875,-0.30609095,38.0,5,-0.090138406
35.150013,15.444419,7.462922,14.0,13,-0.0901361
3.679294,1.6158658,-0.21059991,23.0,6,-0.09013379
34.906204,15.322759,8.800984,26.0,14,-0.09013149
4.2758207,1.8760649,-0.081502736,31.0,7,-0.09012919
36.157047,15.85677,10.57897,10.0,15,-0.09012689
2.0958476,0.91608953,-0.6128835,42.0,0,-0.09010615
4.991584,2.1807709,0.09508071,45.0,8,-0.09010384
2.2127168,0.9662518,-0.5574287,45.0,1,-0.09010154
5.968783,2.606455,0.34133515,36.0,9,-0.09009924
2.3823094,1.039816,-0.50526226,63.0,2,-0.090096936
7.6680827,3.3453255,0.73193395,38.0,10,-0.090094626
2.6617486,1.1606766,-0.45991737,36.0,3,-0.09009232
12.912997,5.62814,1.7295698,46.0,11,-0.09009002
2.9100134,1.2677274,-0.3897382,40.0,4,-0.09008772
21.19219,9.232232,3.6611927,22.0,12,-0.09008541
3.1894615,1.3888029,-0.30434784,39.0,5,-0.09008311
35.29011,15.359241,7.4812393,14.0,13,-0.090080805
3.7288675,1.6221333,-0.21311203,23.0,6,-0.0900785
35.095303,15.259868,8.835177,15.0,14,-0.09007619
4.261847,1.8531032,-0.081118785,37.0,7,-0.09007389
35.73105,15.528904,10.439208,10.0,15,-0.09007159
2.1220796,0.9187456,-0.6196128,37.0,0,-0.090050854
4.998789,2.1642048,0.09508071,45.0,8,-0.09004855
2.2123318,0.95736146,-0.5565289,41.0,1,-0.09004624
5.965011,2.5800583,0.34060243,36.0,9,-0.09004394
2.398539,1.0369467,-0.50793356,60.0,2,-0.09004164
7.6742268,3.3161652,0.731411,35.0,10,-0.090039335
2.6855295,1.1604633,-0.46335894,34.0,3,-0.090037026
12.9243,5.582143,1.7285949,46.0,11,-0.09003472
2.9214914,1.2612166,-0.39071316,44.0,4,-0.09003242
3.2089255,1.3839742,-0.30574232,42.0,5,-0.09002781
35.380516,15.259226,7.4896355,14.0,13,-0.09002551
3.7690742,1.62478,-0.2151008,25.0,6,-0.090023205
35.27815,15.200476,8.868471,15.0,14,-0.0900209
4.2903285,1.8477077,-0.08153765,35.0,7,-0.0900186
35.8986,15.452958,10.472337,21.0,15,-0.09001629
2.1076765,0.9033517,-0.61443645,32.0,0,-0.09025192
5.069557,2.1717691,0.09626748,46.0,8,-0.09024962
2.2303228,0.9549956,-0.5601281,36.0,1,-0.09024732
5.917512,2.5338025,0.3373576,35.0,9,-0.09024501
2.4131525,1.0327839,-0.51022327,56.0,2,-0.090242706
7.6808343,3.2856665,0.73088807,44.0,10,-0.090240404
2.6481903,1.1322807,-0.45616296,26.0,3,-0.0902381
12.951116,5.5348125,1.7293261,38.0,11,-0.09023579
2.8859358,1.2333388,-0.3853509,41.0,4,-0.09023349
20.52926,8.769185,3.5357323,15.0,12,-0.09023119
3.2029827,1.3675088,-0.30469647,38.0,5,-0.090228885
35.4569,15.130978,7.4934516,14.0,13,-0.090226576
3.712823,1.5836546,-0.21154197,25.0,6,-0.09022427
35.376637,15.089428,8.879268,15.0,14,-0.09022197
4.2566032,1.8147162,-0.08076974,33.0,7,-0.09021967
35.56401,15.154679,10.358457,10.0,15,-0.09021736
2.1035478,0.8933373,-0.6123659,34.0,0,-0.090196624
5.034395,2.1369736,0.09546466,43.0,8,-0.09019432
2.2514167,0.9552071,-0.5646272,41.0,1,-0.09019202
5.942428,2.5211902,0.33829966,36.0,9,-0.09018972
2.4111423,1.022476,-0.50907844,54.0,2,-0.09018741
7.788912,3.3013847,0.74012655,35.0,10,-0.090185106
2.666481,1.1296592,-0.4586659,31.0,3,-0.0901828
12.93284,5.4763503,1.7244513,28.0,11,-0.0901805
2.9156017,1.2345978,-0.38876322,44.0,4,-0.09017819
20.378132,8.62483,3.5047581,21.0,12,-0.09017589
3.2221792,1.3630904,-0.30609095,46.0,5,-0.09017359
3.7364516,1.5791076,-0.21258868,25.0,6,-0.090168975
35.38341,14.953817,8.868471,15.0,14,-0.09016667
4.281018,1.808373,-0.081118785,34.0,7,-0.09016437
36.12307,15.251556,10.5065,10.0,15,-0.09016207
2.05486,0.8646281,-0.59735435,37.0,0,-0.09014133
5.00643,2.1055386,0.09480147,52.0,8,-0.090139024
2.227625,0.9364077,-0.5578786,53.0,1,-0.09013672
6.000909,2.5213184,0.3411258,42.0,9,-0.09013442
2.4000397,1.0083914,-0.5060255,60.0,2,-0.09013212
7.757565,3.2577956,0.73611736,27.0,10,-0.09012981
2.6538198,1.113929,-0.45585006,31.0,3,-0.090127505
12.905165,5.4142365,1.7183578,46.0,11,-0.0901252
2.8430057,1.1921719,-0.3785262,31.0,4,-0.0901229
20.287872,8.503253,3.484109,21.0,12,-0.09012059
3.2269173,1.3518353,-0.30609095,38.0,5,-0.09011829
42.973427,18.002628,9.056559,25.0,13,-0.09011599
3.749036,1.5697947,-0.21300736,27.0,6,-0.090113685
35.43179,14.828715,8.867571,27.0,14,-0.09011138
4.3186655,1.8065381,-0.081712164,31.0,7,-0.09010907
35.259968,14.742344,10.240435,10.0,15,-0.09010677
2.0615819,0.8585767,-0.5983896,37.0,0,-0.090086035
5.0525155,2.104196,0.09553447,46.0,8,-0.09008373
2.2362776,0.9308722,-0.5592283,58.0,1,-0.09008142
5.9727936,2.4850101,0.33903235,38.0,9,-0.09007912
2.3855915,0.9920502,-0.5022093,46.0,2,-0.09007682
7.7823334,3.234692,0.7373375,33.0,10,-0.09007452
2.6068068,1.0829741,-0.44708973,30.0,3,-0.09007221
12.912988,5.364583,1.7168955,46.0,11,-0.090069905
2.8856494,1.1982279,-0.38364473,43.0,4,-0.0900676
20.335678,8.43995,3.4872377,24.0,12,-0.0900653
3.2187345,1.3352182,-0.30487078,33.0,5,-0.090063
36.800514,15.258343,7.743793,15.0,13,-0.09006069
3.74554,1.5522193,-0.21248402,24.0,6,-0.09005839
34.04919,14.103636,8.508549,14.0,14,-0.090056084
4.2935386,1.7784419,-0.081118785,33.0,7,-0.09005378
35.207684,14.576321,10.210411,19.0,15,-0.09005147
2.009202,0.8285437,-0.58234286,38.0,0,-0.09003074
4.9825444,2.0536573,0.094068475,39.0,8,-0.090028435
2.2576923,0.93009293,-0.5637273,48.0,1,-0.09002613
5.978168,2.461583,0.33882302,36.0,9,-0.09002382
2.3854094,0.9822211,-0.50144607,45.0,2,-0.09002152
7.765939,3.1961343,0.7347229,46.0,10,-0.09001922
2.6471083,1.0888984,-0.45334715,28.0,3,-0.09001692
12.923384,5.3134475,1.7156768,22.0,11,-0.090014614
2.890022,1.1876426,-0.38364473,36.0,4,-0.090012304
18.709162,7.684636,3.2034652,2.0,12,-0.09001
3.218077,1.3211427,-0.30434784,25.0,5,-0.0900077
36.0944,14.81812,7.584276,14.0,13,-0.0900054
3.662243,1.5027428,-0.20745975,25.0,6,-0.09000309
35.921032,14.732297,8.9634,7.0,14,-0.090000786
4.329632,1.7748297,-0.081677265,34.0,7,-0.08999848
35.357407,14.486722,10.238364,20.0,15,-0.08999618
2.0462093,0.83504325,-0.592178,45.0,0,-0.08997544
4.917475,2.006786,0.09270719,39.0,8,-0.08997314
2.271752,0.9266219,-0.56642675,52.0,1,-0.089970835
6.0144663,2.4520085,0.3403931,38.0,9,-0.08996853
2.3744485,0.9675454,-0.49839315,49.0,2,-0.08996623
7.7222466,3.1451023,0.7294936,44.0,10,-0.08996392
2.6931627,1.0963182,-0.46054313,35.0,3,-0.08996162
12.949208,5.271294,1.7166517,20.0,11,-0.089959316
2.8849561,1.1738073,-0.38242605,31.0,4,-0.089957014
18.702938,7.6058826,3.1978338,2.0,12,-0.089954704
3.2540472,1.3226545,-0.30731115,33.0,5,-0.0899524
36.177567,14.697559,7.5903826,14.0,13,-0.0899501
3.741747,1.5193655,-0.21164663,28.0,6,-0.0899478
34.207024,13.883074,8.522945,31.0,14,-0.08994549
4.2968903,1.7439122,-0.080944255,31.0,7,-0.089943185
35.257385,14.302222,10.194883,19.0,15,-0.08994088
2.1028473,0.84960556,-0.60770714,48.0,0,-0.08992015
4.8784413,1.9700309,0.09183456,33.0,8,-0.089917846
2.26429,0.91391355,-0.5637273,51.0,1,-0.08991554
5.956313,2.404089,0.3366249,33.0,9,-0.089913234
2.3723495,0.9570469,-0.4972483,36.0,2,-0.08991093
7.6703486,3.0927997,0.72356695,41.0,10,-0.08990863
2.702469,1.0891263,-0.46148172,29.0,3,-0.08990632
12.942661,5.2134166,1.7132393,14.0,11,-0.08990402
2.820907,1.136286,-0.3734077,33.0,4,-0.089901716
18.75869,7.552359,3.2028396,2.0,12,-0.08989941
3.2882175,1.323189,-0.3101001,30.0,5,-0.0898971
35.449074,14.257629,7.42705,14.0,13,-0.0898948
3.758147,1.510764,-0.21227466,32.0,6,-0.0898925
34.388485,13.824069,8.556688,7.0,14,-0.0898902
4.345628,1.746051,-0.08174707,34.0,7,-0.08988789
35.238976,14.151697,10.175213,19.0,15,-0.089885585
2.107447,0.8433448,-0.6082248,47.0,0,-0.08986485
4.9703555,1.9880018,0.09344018,45.0,8,-0.08986255
2.2564514,0.90206003,-0.56102794,44.0,1,-0.089860246
6.0069065,2.401377,0.33903235,35.0,9,-0.089857936
2.373687,0.9484455,-0.49686664,38.0,2,-0.08985563
7.687965,3.0703006,0.7242642,49.0,10,-0.08985333
2.6913888,1.0743008,-0.4589788,33.0,3,-0.08985103
12.900879,5.1469264,1.7054397,14.0,11,-0.08984872
2.8099098,1.1210397,-0.3714578,43.0,4,-0.08984642
20.02217,7.9839926,3.4140263,20.0,12,-0.089844115
3.196345,1.2739204,-0.30103594,29.0,5,-0.08984181
36.280422,14.4524,7.591145,14.0,13,-0.0898395
3.7390125,1.4886912,-0.21091393,29.0,6,-0.0898372
36.00746,14.336404,8.947653,3.0,14,-0.0898349
4.3699737,1.7390254,-0.082096115,33.0,7,-0.0898326
34.844128,13.859113,10.0478735,19.0,15,-0.089830294
2.1138237,0.8377755,-0.60926,44.0,0,-0.08980955
4.9304423,1.9530982,0.09256756,43.0,8,-0.08980725
2.2703018,0.898876,-0.5637273,48.0,1,-0.08980495
5.9558253,2.3568757,0.33568287,35.0,9,-0.089802645
2.3950741,0.9477934,-0.50068283,48.0,2,-0.089800335
7.6869874,3.0403943,0.7232183,44.0,10,-0.08979803
2.6930997,1.0646429,-0.4586659,35.0,3,-0.08979573
12.856951,5.080047,1.6973963,14.0,11,-0.08979343
2.8987365,1.1447674,-0.38266978,38.0,4,-0.08979112
18.732492,7.3940363,3.1896992,2.0,12,-0.08978882
3.243177,1.2801377,-0.3050451,34.0,5,-0.089786515
36.342762,14.337783,7.5941987,14.0,13,-0.08978421
3.7420704,1.4755522,-0.21080926,27.0,6,-0.08978191
34.50535,13.598978,8.562537,25.0,14,-0.0897796
4.38532,1.727424,-0.082270645,33.0,7,-0.0897773
34.86891,13.728223,10.041144,19.0,15,-0.089774996
2.107743,0.82686466,-0.60667187,45.0,0,-0.08975426
5.0470705,1.9789425,0.09462695,46.0,8,-0.08975195
2.2661684,0.8881009,-0.56192774,37.0,1,-0.08974965
5.9045053,2.312763,0.33233336,45.0,9,-0.08974735
2.409336,0.94372404,-0.50297254,47.0,2,-0.089745045
7.716107,3.0208046,0.72496146,44.0,10,-0.089742735
2.6728857,1.0458776,-0.4545986,30.0,3,-0.08974043
11.068388,4.3287454,1.4592637,15.0,11,-0.08973813
2.9285989,1.144759,-0.3860821,32.0,4,-0.08973583
18.73979,7.321409,3.1865704,2.0,12,-0.089733526
3.1604042,1.2347317,-0.29685244,33.0,5,-0.08973122
35.361156,13.808083,7.378966,13.0,13,-0.089728914
3.7174294,1.4508615,-0.2091345,29.0,6,-0.08972661
34.755947,13.557758,8.6129265,25.0,14,-0.08972431
4.3428826,1.6932207,-0.08136312,31.0,7,-0.089722
34.972424,13.6281595,10.057191,19.0,15,-0.0897197
2.1016126,0.8160055,-0.60408366,32.0,0,-0.08969896
5.0520825,1.9605905,0.09459204,46.0,8,-0.08969666
2.283789,0.88582444,-0.56552696,50.0,1,-0.08969435
5.9758587,2.3166826,0.3358922,36.0,9,-0.08969205
2.3998022,0.93033993,-0.50030124,36.0,2,-0.08968975
7.654151,2.9657757,0.7181633,55.0,10,-0.089687444
2.659941,1.0301224,-0.4517828,26.0,3,-0.08968514
11.28892,4.369619,1.4863187,18.0,11,-0.08968283
2.9029553,1.1230687,-0.3821823,45.0,4,-0.08968053
18.81313,7.274486,3.194705,2.0,12,-0.08967823
3.2411036,1.252588,-0.30399922,35.0,5,-0.089675926
37.43451,14.467299,7.8010354,15.0,13,-0.089673616
3.6833465,1.4227624,-0.20693639,26.0,6,-0.089671314
35.16119,13.574645,8.701557,30.0,14,-0.08966901
4.26668,1.6463748,-0.07982731,28.0,7,-0.08966671
35.1027,13.537967,10.081002,19.0,15,-0.0896644
2.0901613,0.80275667,-0.59994256,31.0,0,-0.089643665
4.99356,1.9178488,0.09337038,39.0,8,-0.08964136
2.2996025,0.882735,-0.5686763,53.0,1,-0.08963906
6.0118794,2.3065414,0.33746228,36.0,9,-0.08963676
2.4343584,0.93348825,-0.50678873,38.0,2,-0.08963445
7.6500845,2.931999,0.7167688,49.0,10,-0.089632146
2.6950583,1.0323783,-0.45710155,29.0,3,-0.089629844
11.205854,4.2925534,1.4734005,14.0,11,-0.08962754
2.849388,1.090926,-0.3746264,25.0,4,-0.08962523
18.701885,7.1565237,3.1715527,5.0,12,-0.08962293
3.264066,1.2483833,-0.30574232,38.0,5,-0.08962063
3.6941333,1.4113921,-0.20725042,29.0,6,-0.089616016
35.061436,13.38865,8.664664,29.0,14,-0.08961371
4.315368,1.6478776,-0.08063012,34.0,7,-0.08961141
35.471004,13.537977,10.173142,9.0,15,-0.08960911
2.0640578,0.78447396,-0.5916603,37.0,0,-0.089588374
4.989339,1.895274,0.09316095,45.0,8,-0.089586064
2.3064659,0.8756845,-0.5695761,43.0,1,-0.08958376
5.9022593,2.2408817,0.33086795,37.0,9,-0.08958146
2.443109,0.9270741,-0.50793356,44.0,2,-0.08957916
7.634192,2.8953876,0.7143284,33.0,10,-0.08957685
2.6210659,0.9935574,-0.44396105,32.0,3,-0.089574546
12.866221,4.874574,1.689353,14.0,11,-0.08957224
2.9127736,1.1029712,-0.38242605,30.0,4,-0.08956994
18.619604,7.0506296,3.1534064,5.0,12,-0.08956763
3.218091,1.2179428,-0.30103594,30.0,5,-0.08956533
36.607925,13.847585,7.607937,14.0,13,-0.08956303
3.7401376,1.414028,-0.20955318,28.0,6,-0.089560725
34.832684,13.162192,8.59673,14.0,14,-0.089558415
4.300516,1.625032,-0.080246165,27.0,7,-0.08955611
34.867435,13.168352,9.986793,19.0,15,-0.08955381
2.09029,0.786105,-0.5983896,40.0,0,-0.089533076
5.0199294,1.8878678,0.09361471,41.0,8,-0.08953077
2.2965884,0.863231,-0.56642675,56.0,1,-0.089528464
5.8894796,2.2125373,0.32971656,39.0,9,-0.08952616
2.438978,0.9157803,-0.5064071,41.0,2,-0.08952386
7.6386576,2.8666198,0.71380556,38.0,10,-0.08952156
2.5799603,0.9682023,-0.4364522,27.0,3,-0.08951925
11.081283,4.156355,1.4531702,18.0,11,-0.089516945
2.8290532,1.0605549,-0.3709703,29.0,4,-0.08951464
18.59046,6.965488,3.1443331,7.0,12,-0.08951234
3.201799,1.1990153,-0.2991185,38.0,5,-0.08951003
51.28127,19.2039,10.64409,34.0,13,-0.08950773
3.6905608,1.3813133,-0.2065177,28.0,6,-0.08950543
34.839638,13.032945,8.587731,32.0,14,-0.089503124
4.338005,1.6219146,-0.08083955,30.0,7,-0.08950082
34.06266,12.728738,9.743502,9.0,15,-0.08949851
2.0856435,0.77647334,-0.59631914,27.0,0,-0.08947778
4.9852567,1.8549925,0.0928468,41.0,8,-0.089475475
2.2941082,0.8531707,-0.56507707,50.0,1,-0.08947317
5.951072,2.2131827,0.33275205,45.0,9,-0.08947086
2.4088771,0.8953756,-0.49953794,31.0,2,-0.08946856
7.674268,2.8509884,0.7162459,46.0,10,-0.08946626
2.683324,0.99631983,-0.45334715,33.0,3,-0.08946396
11.118054,4.1259384,1.4560951,18.0,11,-0.08946165
2.922075,1.0838094,-0.38266978,41.0,4,-0.089459345
18.489367,6.85778,3.123371,12.0,12,-0.08945704
3.2188349,1.1932379,-0.3003387,29.0,5,-0.08945474
39.643173,14.688074,8.217762,19.0,13,-0.08945244
3.6298068,1.3441465,-0.20285419,33.0,6,-0.08945013
34.976303,12.945063,8.610227,32.0,14,-0.089447826
4.3696156,1.6172363,-0.08132821,26.0,7,-0.089445524
34.00684,12.579528,9.715549,18.0,15,-0.08944322
2.0702136,0.76251084,-0.5911427,40.0,0,-0.08942248
5.0495515,1.8598748,0.09392886,45.0,8,-0.08942018
2.3115544,0.8509458,-0.5686763,46.0,1,-0.089417875
5.9662585,2.1951559,0.3331707,43.0,9,-0.08941557
2.4285717,0.8930593,-0.50297254,35.0,2,-0.08941327
7.6000195,2.7932515,0.70840186,52.0,10,-0.08941096
2.6921754,0.98946095,-0.45428574,37.0,3,-0.08940866
11.168944,4.1027336,1.4609698,24.0,11,-0.089406356
2.8827932,1.0583773,-0.37706378,34.0,4,-0.089404054
18.47981,6.7809443,3.1177392,12.0,12,-0.089401744
3.1762161,1.1648452,-0.2959809,25.0,5,-0.08939944
40.428955,14.826913,8.37041,20.0,13,-0.08939714
3.6286182,1.3300408,-0.20254017,21.0,6,-0.08939484
35.231293,12.906774,8.6624155,25.0,14,-0.08939253
4.172433,1.52772,-0.077558495,27.0,7,-0.089390226
34.975784,12.799325,9.979546,19.0,15,-0.08938792
2.0691006,0.75431865,-0.5901075,38.0,0,-0.08936719
5.065407,1.8456612,0.09410337,41.0,8,-0.08936489
2.2833822,0.8315351,-0.56102794,42.0,1,-0.08936258
5.9250875,2.156557,0.33044925,43.0,9,-0.089360274
2.4462786,0.89037323,-0.5060255,37.0,2,-0.08935797
7.6672835,2.7891498,0.71380556,46.0,10,-0.08935567
2.6993258,0.9814081,-0.4549115,41.0,3,-0.08935336
11.071254,4.023041,1.4463456,26.0,11,-0.08935106
2.9125922,1.0577955,-0.38047612,34.0,4,-0.089348756
18.395672,6.6773086,3.099593,22.0,12,-0.08934645
3.178188,1.1536269,-0.2958066,31.0,5,-0.089344144
37.21383,13.500604,7.694946,15.0,13,-0.08934184
3.728999,1.3520868,-0.20787844,29.0,6,-0.08933954
35.52347,12.873356,8.723152,30.0,14,-0.08933724
4.3431954,1.5730715,-0.08063012,28.0,7,-0.08933493
34.914894,12.63901,9.949522,19.0,15,-0.089332625
2.060817,0.74315983,-0.5870016,38.0,0,-0.08931189
4.983401,1.7960997,0.09246285,46.0,8,-0.08930959
2.2954383,0.8268611,-0.5632775,53.0,1,-0.089307286
5.9626455,2.1466875,0.332124,39.0,9,-0.089304976
2.4105804,0.8678635,-0.4980115,39.0,2,-0.089302674
7.746338,2.7873259,0.720255,33.0,10,-0.08930037
2.6971588,0.96997344,-0.45397288,34.0,3,-0.08929807
11.178632,4.0179505,1.4585325,24.0,11,-0.08929576
2.8658254,1.0295011,-0.37389517,33.0,4,-0.08929346
16.648933,5.977578,2.8017418,2.0,12,-0.089291155
3.1559434,1.1330996,-0.29336622,29.0,5,-0.08928885
35.915462,12.887913,7.4171276,14.0,13,-0.08928654
3.6697755,1.3161381,-0.2043196,23.0,6,-0.08928424
35.162777,12.60395,8.623724,29.0,14,-0.08928194
4.26018,1.5262067,-0.07898959,23.0,7,-0.08927964
34.649605,12.406358,9.861524,18.0,15,-0.08927733
2.0597599,0.73466325,-0.58596635,38.0,0,-0.08925659
4.912413,1.7511622,0.09103175,42.0,8,-0.08925429
2.3129961,0.8240762,-0.56687665,49.0,1,-0.08925199
5.8891973,2.09705,0.32762313,37.0,9,-0.089249685
2.452435,0.87327325,-0.5060255,48.0,2,-0.089247376
7.7278647,2.7502468,0.71764034,30.0,10,-0.08924507
2.6800551,0.95327127,-0.4505313,37.0,3,-0.08924277
11.164533,3.9689283,1.4548763,20.0,11,-0.08924047
2.895589,1.0287949,-0.37730753,38.0,4,-0.08923816
18.153309,6.4462624,3.0510983,17.0,12,-0.08923586
3.2180824,1.1427451,-0.2987699,35.0,5,-0.089233555
35.886227,12.736191,7.401863,14.0,13,-0.08923125
3.768465,1.3367034,-0.20955318,32.0,6,-0.08922894
34.66105,12.287748,8.490103,7.0,14,-0.08922664
4.3503013,1.5413784,-0.08056031,28.0,7,-0.08922434
34.7874,12.318855,9.888441,18.0,15,-0.08922204
2.0641334,0.7281109,-0.58648396,37.0,0,-0.0892013
5.016563,1.7685813,0.0928468,46.0,8,-0.08919899
2.3103447,0.81405383,-0.56552696,51.0,1,-0.08919669
5.9624176,2.099698,0.33128664,45.0,9,-0.08919439
2.4462094,0.8614461,-0.5041174,50.0,2,-0.089192085
