x,y,z,intensity,ring,time
-3.210263,-14.326653,-1.2845013,26.0,5,-0.036407404
-11.843436,-52.811283,10.520445,34.0,13,-0.0364051
-8.227726,-36.65846,-1.9689835,8.0,6,-0.036402795
-0.9430965,-4.167887,-1.1450155,20.0,0,-0.03637515
-11.500146,-50.782192,0.90885156,10.0,8,-0.036372844
-1.1233838,-4.9566045,-1.1733446,30.0,1,-0.036370542
-16.258009,-71.73374,3.854753,39.0,9,-0.036368236
-1.4023148,-6.1823015,-1.2322445,26.0,2,-0.036365934
-1.7711357,-7.795686,-1.2661808,27.0,3,-0.036361326
-2.318634,-10.18904,-1.2830406,46.0,4,-0.036356717
-3.2890093,-14.44163,-1.2958316,36.0,5,-0.03635211
-12.010254,-52.693058,10.50518,34.0,13,-0.036349803
-8.421383,-36.917706,-1.984475,8.0,6,-0.0363475
-0.97625554,-4.245527,-1.167274,25.0,0,-0.036319852
-11.580656,-50.3618,0.9020102,10.0,8,-0.03631755
-1.1494296,-4.9946322,-1.1832426,26.0,1,-0.036315244
-13.441271,-58.35994,3.1385875,12.0,9,-0.03631294
-1.4287375,-6.1984134,-1.2364424,20.0,2,-0.036310636
-1.7996416,-7.8013177,-1.2680578,33.0,3,-0.036306027
-12.216228,-52.914307,6.6679597,13.0,11,-0.036303725
-2.338108,-10.119403,-1.2752409,43.0,4,-0.03630142
-3.162862,-13.667213,-1.2273271,20.0,5,-0.03629681
-8.658675,-37.385742,-2.0111663,17.0,6,-0.036292203
-16.226467,-70.005806,16.590591,18.0,14,-0.0362899
-0.9714446,-4.161371,-1.1450155,27.0,0,-0.036264557
-11.664935,-49.929672,0.8949943,9.0,8,-0.03626225
-1.1588706,-4.9564342,-1.1751443,31.0,1,-0.03625995
-13.5994,-58.118195,3.1281204,12.0,9,-0.036257643
-1.4170781,-6.0560045,-1.2089659,18.0,2,-0.03625534
-1.8376795,-7.8411465,-1.2755668,24.0,3,-0.036250733
-12.3156395,-52.508003,6.6221366,13.0,11,-0.036248427
-2.381583,-10.145967,-1.2796283,43.0,4,-0.036246125
-13.173494,-56.077408,9.123572,17.0,12,-0.03624382
-3.4544997,-14.6937275,-1.3205838,24.0,5,-0.036241516
-8.832577,-37.539986,-2.02111,8.0,6,-0.03623691
-1.0005178,-4.216052,-1.1610622,30.0,0,-0.03620926
-11.800367,-49.725212,0.8920623,9.0,8,-0.036206957
-1.1829197,-4.980798,-1.1818929,30.0,1,-0.03620465
-1.4610714,-6.1424484,-1.2272835,22.0,2,-0.036200043
-1.8755624,-7.872791,-1.2818241,30.0,3,-0.036195435
-12.199821,-51.209515,6.4637065,12.0,11,-0.036193132
-2.420206,-10.151108,-1.2813344,41.0,4,-0.03619083
-13.658903,-57.245434,9.321305,18.0,12,-0.036188524
-3.532609,-14.793978,-1.3306938,14.0,5,-0.036186222
-13.199316,-55.233864,11.038682,36.0,13,-0.036183916
-1.027902,-4.26512,-1.1755562,30.0,0,-0.036153965
-11.917838,-49.41336,0.8872454,19.0,8,-0.03615166
-1.2125978,-5.0237875,-1.1931404,28.0,1,-0.036149357
-1.5078576,-6.2422714,-1.2482725,33.0,2,-0.03614475
-13.54845,-56.045395,5.0445743,21.0,10,-0.036142446
-1.8770208,-7.758677,-1.2643036,24.0,3,-0.03614014
-12.332319,-50.936794,6.4349456,24.0,11,-0.036137838
-2.449449,-10.109371,-1.2771908,31.0,4,-0.036135532
-3.6527767,-15.064254,-1.3561434,10.0,5,-0.036130924
-11.814914,-48.651226,-2.623811,14.0,6,-0.036126316
-1.040488,-4.252124,-1.1729679,31.0,0,-0.03609867
-1.2436192,-5.078416,-1.2070874,39.0,1,-0.036094062
-14.791991,-60.35862,3.256867,17.0,9,-0.036091756
-1.5352498,-6.259851,-1.252852,31.0,2,-0.036089454
-1.9017985,-7.7485723,-1.2636777,33.0,3,-0.036084846
-12.679199,-51.620464,6.5265913,12.0,11,-0.03608254
-2.4990704,-10.166735,-1.2854779,41.0,4,-0.036080237
-13.818512,-56.17424,9.162368,17.0,12,-0.03607793
-3.7267692,-15.13847,-1.3639873,6.0,5,-0.03607563
-11.937962,-48.456635,-2.6154373,14.0,6,-0.03607102
-14.812492,-60.034206,-1.0793266,34.0,7,-0.036066413
-1.056444,-4.2561502,-1.1750386,27.0,0,-0.036043372
-12.71284,-51.17866,0.9204749,10.0,8,-0.03604107
-1.2599291,-5.0683703,-1.2057376,45.0,1,-0.036038764
-1.5531563,-6.243294,-1.2505622,26.0,2,-0.036034156
-1.9183277,-7.6997175,-1.2567947,24.0,3,-0.036029547
-13.03412,-52.277004,6.615312,13.0,11,-0.036027245
-2.5316606,-10.146394,-1.2840155,43.0,4,-0.03602494
-14.000152,-56.068165,9.152982,17.0,12,-0.036022637
-3.7986705,-15.213014,-1.3718314,6.0,5,-0.03602033
-12.135144,-48.527046,-2.6215084,14.0,6,-0.036015723
-15.027785,-60.005413,-1.0797455,34.0,7,-0.036011115
-1.07507,-4.2674227,-1.1791797,31.0,0,-0.035988078
-13.12508,-52.060825,0.9371593,10.0,8,-0.03598577
-1.2785664,-5.067721,-1.2066375,36.0,1,-0.03598347
-1.5816678,-6.2644835,-1.2559049,24.0,2,-0.03597886
-1.9790893,-7.8270326,-1.2786956,36.0,3,-0.035974253
-13.239896,-52.32356,6.627012,13.0,11,-0.035971947
-2.5797327,-10.187528,-1.2903527,43.0,4,-0.035969645
-14.17346,-55.93087,9.13859,17.0,12,-0.03596734
-3.8796484,-15.30975,-1.3817672,8.0,5,-0.035965037
-12.350638,-48.666367,-2.6313474,14.0,6,-0.03596043
-1.0837395,-4.2393126,-1.1724503,33.0,0,-0.03593278
-13.347368,-52.173553,0.9400215,11.0,8,-0.035930477
-1.301082,-5.082105,-1.2111365,33.0,1,-0.03592817
-1.5840356,-6.1828513,-1.2406402,22.0,2,-0.035923563
-2.023091,-7.8851314,-1.289333,36.0,3,-0.035918955
-2.6365197,-10.261135,-1.3008335,41.0,4,-0.035914347
-13.900299,-54.05974,8.840738,16.0,12,-0.035912044
-3.959363,-15.398383,-1.3910056,6.0,5,-0.035909742
-12.577213,-48.843452,-2.64328,14.0,6,-0.035905134
-1.103866,-4.2560735,-1.1781443,31.0,0,-0.035877485
-13.465097,-51.878895,0.9355537,10.0,8,-0.03587518
-1.320773,-5.0850773,-1.212936,31.0,1,-0.035872877
-14.46663,-55.65771,3.0138187,11.0,9,-0.03587057
-1.6219065,-6.2399883,-1.2532336,18.0,2,-0.03586827
-14.260994,-54.82726,4.9563727,20.0,10,-0.035865966
-2.0511,-7.879934,-1.2896459,36.0,3,-0.03586366
-14.167283,-54.389053,6.9009743,14.0,11,-0.035861358
-2.6638107,-10.219213,-1.2966899,33.0,4,-0.035859052
-14.078941,-53.972668,8.834481,16.0,12,-0.03585675
-4.0417523,-15.494357,-1.4009414,6.0,5,-0.035854444
-4.399306,-16.840988,-0.91221577,64.0,6,-0.035849836
-1.129529,-4.2932963,-1.1895324,31.0,0,-0.035822187
-13.743867,-52.20286,0.94225544,11.0,8,-0.035819884
-1.3370253,-5.0747824,-1.2115864,39.0,1,-0.035817582
-1.6611964,-6.3007326,-1.2665902,40.0,2,-0.035812974
-14.404513,-54.596058,4.9399877,20.0,10,-0.035810668
-2.0770807,-7.8669953,-1.2887073,30.0,3,-0.035808366
-13.495008,-51.076565,6.486618,12.0,11,-0.03580606
-2.7228065,-10.298133,-1.3079019,39.0,4,-0.035803758
-14.170245,-53.556538,8.77441,16.0,12,-0.03580145
-4.1370926,-15.6361685,-1.4150605,6.0,5,-0.03579915
-4.4509025,-16.7985,-0.9107504,100.0,6,-0.03579454
-4.43246,-16.705334,-0.3016823,50.0,7,-0.035789933
-1.1529753,-4.3210588,-1.1983322,32.0,0,-0.035766892
-13.948699,-52.23958,0.9437913,11.0,8,-0.03576459
-1.361775,-5.096442,-1.217885,30.0,1,-0.035762284
-1.6983941,-6.351794,-1.2780387,42.0,2,-0.035757676
-2.1147482,-7.8978615,-1.2949647,30.0,3,-0.035753068
-13.687605,-51.082836,6.493443,12.0,11,-0.035750765
-2.7566798,-10.280898,-1.306927,41.0,4,-0.03574846
-14.348916,-53.47622,8.769404,16.0,12,-0.035746157
-4.2262435,-15.750564,-1.4267395,6.0,5,-0.03574385
-4.516771,-16.809864,-0.91221577,59.0,6,-0.035739243
-4.487107,-16.67624,-0.30143797,96.0,7,-0.035734635
-1.1801612,-4.361763,-1.2107556,32.0,0,-0.035711598
-16.891417,-62.385868,1.1281586,25.0,8,-0.03570929
-1.3958641,-5.151847,-1.2322818,33.0,1,-0.03570699
-15.828465,-58.379242,3.169989,14.0,9,-0.035704684
-1.7215825,-6.349616,-1.2788019,42.0,2,-0.03570238
-2.1505842,-7.9209323,-1.2999705,33.0,3,-0.035697773
-14.059443,-51.74737,6.5841136,13.0,11,-0.035695467
-2.7961972,-10.28462,-1.3086332,41.0,4,-0.035693165
-14.017947,-51.52353,8.457161,15.0,12,-0.03569086
-4.3115344,-15.8472185,-1.4368495,6.0,5,-0.035688557
-4.5481195,-16.69379,-0.90677285,49.0,6,-0.03568395
-4.5363436,-16.627682,-0.30084458,100.0,7,-0.03567934
-1.1861802,-4.3240824,-1.2014381,32.0,0,-0.0356563
-17.037088,-62.064266,1.1234114,24.0,8,-0.035653997
-1.4102259,-5.1337895,-1.2291325,30.0,1,-0.03565169
-1.7390532,-6.326531,-1.2753674,40.0,2,-0.035647083
-13.4567585,-48.921158,4.4390163,16.0,10,-0.03564478
-2.1928995,-7.9667044,-1.3087308,27.0,3,-0.035642475
-13.856224,-50.304718,6.406672,12.0,11,-0.035640173
-2.825222,-10.249919,-1.3054645,30.0,4,-0.035637867
-13.885722,-50.343147,8.2713175,28.0,12,-0.035635564
-4.399671,-15.951155,-1.4476569,6.0,5,-0.03563326
-14.5880575,-52.853497,10.657827,34.0,13,-0.035630956
-4.5957274,-16.63931,-0.9046795,100.0,6,-0.035628654
-4.598089,-16.625237,-0.30108893,96.0,7,-0.035624046
-1.1976442,-4.3068867,-1.1978146,31.0,0,-0.035601005
-17.414448,-62.582367,1.1338829,26.0,8,-0.0355987
-1.415069,-5.081902,-1.217885,27.0,1,-0.035596397
-1.7600725,-6.3166394,-1.2746042,40.0,2,-0.03559179
-14.967386,-53.67952,4.875492,40.0,10,-0.035589483
-2.2058306,-7.9057255,-1.2999705,21.0,3,-0.03558718
-14.081918,-50.435772,6.4295835,12.0,11,-0.03558488
-2.8604505,-10.238081,-1.3052207,41.0,4,-0.035582572
-14.0688095,-50.321007,8.275698,14.0,12,-0.03558027
-4.4998493,-16.094961,-1.4621247,4.0,5,-0.035577964
-14.857089,-53.10476,10.718886,35.0,13,-0.03557566
-4.652707,-16.61932,-0.90447015,80.0,6,-0.035573356
-4.665808,-16.643744,-0.3017172,93.0,7,-0.035568748
-1.2236755,-4.3417277,-1.2086849,32.0,0,-0.035545707
-13.847327,-49.098915,0.8904567,9.0,8,-0.035543405
-1.4306818,-5.0694304,-1.2160853,33.0,1,-0.035541102
-1.7773083,-6.2934527,-1.2711695,30.0,2,-0.035536494
-2.2178254,-7.8428535,-1.2908974,18.0,3,-0.035531886
-2.8929253,-10.216576,-1.3037584,37.0,4,-0.035527278
-13.977273,-49.328915,8.120514,13.0,12,-0.03552497
-4.6076045,-16.261265,-1.4786843,4.0,5,-0.03552267
-15.0905695,-53.222565,10.753232,35.0,13,-0.035520364
-4.732077,-16.656206,-0.3022408,96.0,7,-0.035513453
-1.2478428,-4.3690085,-1.2174848,31.0,0,-0.035490412
-14.00324,-48.996445,0.8894794,9.0,8,-0.03548811
-1.4537274,-5.0831413,-1.2205844,24.0,1,-0.035485804
-19.08407,-66.685814,3.6351511,31.0,9,-0.0354835
-1.8095298,-6.3230724,-1.2784203,36.0,2,-0.035481196
-15.401015,-53.780586,4.8943176,20.0,10,-0.035478894
-2.2990603,-8.02306,-1.3218714,31.0,3,-0.035476588
-2.9406137,-10.248393,-1.3091207,41.0,4,-0.03547198
-14.158101,-49.3102,8.12552,13.0,12,-0.035469677
-4.7072277,-16.394453,-1.4922807,4.0,5,-0.03546737
-15.276259,-53.169567,10.753232,35.0,13,-0.03546507
-13.968112,-48.58456,-2.649351,15.0,6,-0.035462763
-4.79572,-16.658806,-0.30258983,93.0,7,-0.035458155
-1.2711415,-4.3924613,-1.2252494,32.0,0,-0.035435118
-14.173623,-48.945343,0.8894444,19.0,8,-0.03543281
-1.4806824,-5.1098557,-1.2282327,31.0,1,-0.03543051
-1.8195614,-6.275234,-1.2700247,40.0,2,-0.0354259
-15.488724,-53.38207,4.8629417,19.0,10,-0.035423595
-2.3132818,-7.967561,-1.3140497,36.0,3,-0.035421293
-14.96042,-51.494118,6.5841136,13.0,11,-0.035418987
-2.9880085,-10.278095,-1.3142391,33.0,4,-0.035416685
-14.625893,-50.277138,8.293218,14.0,12,-0.03541438
-4.806722,-16.523314,-1.5055282,4.0,5,-0.035412077
-14.143206,-48.554684,-2.6503978,15.0,6,-0.03540747
-1.282441,-4.377099,-1.2221435,32.0,0,-0.035743237
-14.319541,-48.842426,0.8884322,9.0,8,-0.035740934
-1.5014595,-5.118007,-1.2313821,33.0,1,-0.03573863
-1.8652457,-6.3539357,-1.2871976,24.0,2,-0.03573402
-15.747632,-53.60951,4.888391,20.0,10,-0.035731718
-2.3547313,-8.011015,-1.3224971,37.0,3,-0.035729412
-3.0484169,-10.357634,-1.3256948,35.0,4,-0.035724804
-4.9161825,-16.682259,-1.5215648,4.0,5,-0.035720196
-1.3067254,-4.400148,-1.2299082,31.0,0,-0.035687942
-14.500199,-48.826645,0.8890605,9.0,8,-0.035685636
-1.5259762,-5.135151,-1.2367809,34.0,1,-0.035683334
-15.914152,-53.51943,2.9262083,22.0,9,-0.035681028
-1.8952405,-6.3696375,-1.291777,24.0,2,-0.035678726
-2.393666,-8.034515,-1.327816,40.0,3,-0.035674118
-3.1044025,-10.413512,-1.3342258,41.0,4,-0.03566951
-5.026813,-16.84064,-1.5376015,4.0,5,-0.0356649
-15.653528,-52.408478,10.631878,34.0,13,-0.035662595
-19.499943,-65.244865,-3.5687892,42.0,6,-0.035660293
-1.3220764,-4.39556,-1.2299082,31.0,0,-0.035632644
-14.68713,-48.799976,0.88954914,9.0,8,-0.03563034
-1.577942,-5.2396154,-1.2633251,34.0,1,-0.035628036
-15.9655285,-53.01413,2.9016104,10.0,9,-0.035625733
-1.9367222,-6.4268947,-1.304752,28.0,2,-0.035623427
-2.4348216,-8.069607,-1.3350118,25.0,3,-0.03561882
-3.1505866,-10.428668,-1.337638,39.0,4,-0.03561421
-14.974877,-49.567917,8.201234,28.0,12,-0.03561191
-5.1472564,-17.027054,-1.556253,4.0,5,-0.035609603
-15.732914,-52.011513,10.562424,34.0,13,-0.0356073
-19.691698,-65.05788,-3.5622995,42.0,6,-0.035604995
-1.3526093,-4.440815,-1.2438843,35.0,0,-0.03557735
-14.845371,-48.739536,0.88933975,19.0,8,-0.035575043
-1.5708791,-5.1541977,-1.2439793,30.0,1,-0.03557274
-17.630314,-57.810482,3.1674771,14.0,9,-0.035570435
-1.9717517,-6.4614058,-1.3131475,29.0,2,-0.035568133
-15.834549,-51.857224,4.7437124,19.0,10,-0.035565827
-2.4384916,-7.9859176,-1.3224971,28.0,3,-0.035563525
-16.373165,-53.58768,6.8800125,14.0,11,-0.03556122
-3.1654196,-10.35362,-1.329351,39.0,4,-0.035558917
-15.129315,-49.454903,8.191222,13.0,12,-0.035556614
-5.274308,-17.229979,-1.5764731,4.0,5,-0.03555431
-19.9436,-65.11062,-3.5687892,42.0,6,-0.0355497
-1.3644832,-4.427074,-1.2412962,31.0,0,-0.03552205
-15.031921,-48.74092,0.8903171,9.0,8,-0.03551975
-1.5641516,-5.0686135,-1.2246336,31.0,1,-0.035517443
-17.80961,-57.67607,3.1634996,13.0,9,-0.03551514
-2.0059104,-6.4961004,-1.3215431,36.0,2,-0.035512835
-16.300514,-52.756226,4.8308682,19.0,10,-0.035510533
-2.4756885,-8.007552,-1.327503,21.0,3,-0.03550823
-3.2168021,-10.391811,-1.3356882,43.0,4,-0.035503622
-15.18613,-49.02818,8.129274,27.0,12,-0.035501316
-5.3950825,-17.417938,-1.5952986,4.0,5,-0.035499014
-16.144709,-52.09074,10.600585,34.0,13,-0.035496708
-1.3908617,-4.457323,-1.2511313,38.0,0,-0.035466757
-16.094757,-51.547558,0.9426045,11.0,8,-0.03546445
-1.6103108,-5.154266,-1.2466787,33.0,1,-0.03546215
-2.0086572,-6.425349,-1.3085681,34.0,2,-0.03545754
-2.5815132,-8.247706,-1.3688017,28.0,3,-0.035452932
-15.848634,-50.604008,6.510992,12.0,11,-0.03545063
-3.258992,-10.399462,-1.3381255,37.0,4,-0.035448324
-15.390277,-49.080418,8.146795,13.0,12,-0.03544602
-5.530368,-17.636639,-1.6170876,4.0,5,-0.035443716
-1.4040849,-4.4450727,-1.2490608,38.0,0,-0.035411462
-16.747082,-52.98593,0.96996987,11.0,8,-0.035409156
-1.6200657,-5.1226015,-1.2403802,34.0,1,-0.035406854
-14.937396,-47.202965,2.5947123,8.0,9,-0.035404548
-2.0446966,-6.4613495,-1.3173454,40.0,2,-0.035402246
-2.510052,-7.9222827,-1.3162397,21.0,3,-0.035397638
-16.526691,-52.130318,6.714758,13.0,11,-0.03539533
-3.3144822,-10.448571,-1.3459252,39.0,4,-0.03539303
-5.6811075,-17.898281,-1.6428857,2.0,5,-0.03538842
-16.418821,-51.696095,10.543343,34.0,13,-0.035386115
-16.78753,-52.761223,-0.9664445,24.0,7,-0.035379205
-1.4266526,-4.4622254,-1.2552725,42.0,0,-0.035356164
-15.902816,-49.710266,0.91101557,30.0,8,-0.03535386
-1.649225,-5.1521783,-1.2489282,30.0,1,-0.035351556
-15.166044,-47.35025,2.6057029,17.0,9,-0.035349254
-2.0516684,-6.4055605,-1.3074232,38.0,2,-0.035346948
-2.5720735,-8.020691,-1.3340733,21.0,3,-0.03534234
-16.717058,-52.098774,6.71817,13.0,11,-0.035340037
-3.3339417,-10.384016,-1.3391005,26.0,4,-0.03533773
-5.8313026,-18.151495,-1.6679865,4.0,5,-0.035333123
-16.529488,-51.42165,10.499075,34.0,13,-0.03533082
-16.891918,-52.454853,-0.9619068,23.0,7,-0.03532391
-1.4410305,-4.453542,-1.2542372,39.0,0,-0.03530087
-16.08917,-49.694405,0.9117486,10.0,8,-0.035298564
-1.6816136,-5.1908836,-1.2597259,30.0,1,-0.03529626
-15.338012,-47.31792,2.6068542,8.0,9,-0.035293955
-2.0927825,-6.456255,-1.3192534,38.0,2,-0.035291653
-16.723253,-51.560734,4.742318,19.0,10,-0.035289347
-2.6531055,-8.175129,-1.361293,34.0,3,-0.035287045
-16.050283,-49.427055,6.3808355,12.0,11,-0.03528474
-3.4100428,-10.49503,-1.3549435,41.0,4,-0.035282437
-17.510893,-53.86101,8.970266,17.0,12,-0.03528013
-5.974708,-18.377352,-1.690647,4.0,5,-0.03527783
-16.82427,-51.71836,10.571582,34.0,13,-0.035275526
-17.03154,-52.26248,-0.9594635,23.0,7,-0.035268612
-1.4451454,-4.413602,-1.2444019,37.0,0,-0.03524557
-1.722183,-5.2534976,-1.2763723,32.0,1,-0.035240963
-17.11035,-52.164154,2.8771172,10.0,9,-0.03523866
-2.1244838,-6.4768925,-1.3249778,25.0,2,-0.035236355
-16.916801,-51.54369,4.746153,19.0,10,-0.035234053
-2.6711485,-8.133913,-1.3559741,37.0,3,-0.035231747
-16.1341,-49.101044,6.345981,24.0,11,-0.035229445
-3.4249554,-10.417062,-1.3464125,39.0,4,-0.035227142
-6.124743,-18.617563,-1.7147021,2.0,5,-0.035222534
-16.969105,-51.55116,10.549448,34.0,13,-0.035220228
-17.170038,-52.06977,-0.95702016,23.0,7,-0.035213318
-1.472694,-4.445207,-1.2547548,37.0,0,-0.035190277
-17.89423,-53.98072,0.99265796,12.0,8,-0.03518797
-1.7570753,-5.2973948,-1.2885196,34.0,1,-0.03518567
-17.297373,-52.11927,2.8779545,10.0,9,-0.035183363
-2.1452253,-6.4638476,-1.3238329,25.0,2,-0.03518106
-19.015497,-57.2628,5.278849,23.0,10,-0.03517876
-2.7051308,-8.14141,-1.35879,43.0,3,-0.035176452
-17.17403,-51.657143,6.6840467,13.0,11,-0.03517415
-3.4970117,-10.512409,-1.3603058,37.0,4,-0.035171844
-6.405518,-19.244484,-1.7744908,4.0,5,-0.035167236
-17.177479,-51.577293,10.567002,34.0,13,-0.035164934
-18.778147,-56.28516,-1.0356956,30.0,7,-0.03515802
-1.485746,-4.4327126,-1.2526842,38.0,0,-0.035134982
-18.198275,-54.262993,0.9990107,12.0,8,-0.035132676
-1.7668767,-5.265364,-1.282221,32.0,1,-0.035130374
-2.1727738,-6.4712095,-1.3268858,31.0,2,-0.035125766
-2.7159088,-8.07949,-1.3500296,37.0,3,-0.035121158
-3.5324206,-10.496375,-1.3598183,35.0,4,-0.03511655
-6.8032827,-20.203878,-1.8651329,18.0,5,-0.03511194
-17.46648,-51.840748,10.633405,34.0,13,-0.035109635
-18.922062,-56.063908,-1.0328335,30.0,7,-0.035102725
-1.5086538,-4.4494543,-1.2588959,34.0,0,-0.035079684
-18.40171,-54.24079,0.99977857,12.0,8,-0.035077382
-1.7752233,-5.229639,-1.2750225,30.0,1,-0.035075076
-18.755327,-55.219776,3.0563154,24.0,9,-0.035072774
-2.1921916,-6.4542904,-1.3249778,23.0,2,-0.035070468
-17.713346,-52.12206,4.816226,19.0,10,-0.035068166
-2.7555423,-8.103625,-1.3556613,40.0,3,-0.03506586
-16.761854,-49.265793,6.3896103,12.0,11,-0.035063557
-3.5677576,-10.480222,-1.3593308,35.0,4,-0.03506125
-17.754211,-52.12285,8.721223,16.0,12,-0.03505895
-6.8544908,-20.123426,-1.8599035,18.0,5,-0.035056643
-19.091812,-55.921818,-1.0314373,30.0,7,-0.035047427
-1.5229231,-4.440506,-1.2578605,34.0,0,-0.03502439
-17.935383,-52.26589,0.9645247,11.0,8,-0.035022084
-1.7978972,-5.2363124,-1.2781719,32.0,1,-0.03501978
-16.205616,-47.17148,2.613972,25.0,9,-0.035017475
-2.2587225,-6.5747137,-1.3513094,38.0,2,-0.035015173
-2.7793152,-8.08088,-1.3534712,37.0,3,-0.035010565
-16.652725,-48.39047,6.2835836,23.0,11,-0.03500826
-3.5978563,-10.448935,-1.3568934,31.0,4,-0.035005957
-18.201147,-52.830025,8.850124,16.0,12,-0.03500365
-6.962984,-20.210518,-1.8701879,15.0,5,-0.03500135
-19.28363,-55.845383,-1.0312628,60.0,7,-0.034992132
-1.5352484,-4.4260373,-1.2552725,35.0,0,-0.03496909
-16.827393,-48.485107,0.895832,9.0,8,-0.03496679
-1.8263923,-5.2594595,-1.2853703,32.0,1,-0.034964483
-16.265942,-46.814648,2.5973291,16.0,9,-0.03496218
-2.2823024,-6.568644,-1.351691,21.0,2,-0.034959875
-2.8036122,-8.059936,-1.351594,37.0,3,-0.034955267
-16.800653,-48.272053,6.275784,23.0,11,-0.034952965
-3.6264744,-10.4138155,-1.3539685,18.0,4,-0.03495066
-18.326952,-52.59828,8.821966,16.0,12,-0.034948356
-7.154113,-20.532276,-1.9022611,19.0,5,-0.034946054
-19.490982,-55.813595,-1.0319259,30.0,7,-0.034936838
-1.5545253,-4.4315896,-1.2583783,37.0,0,-0.034913797
-16.947525,-48.28645,0.8932491,9.0,8,-0.03491149
-1.8582997,-5.291664,-1.2948182,34.0,1,-0.03490919
-16.392189,-46.652065,2.5914674,33.0,9,-0.034906883
-2.2928529,-6.5254445,-1.3444403,31.0,2,-0.03490458
-17.306618,-49.227066,4.5652175,17.0,10,-0.03490228
-2.8402505,-8.074326,-1.3556613,40.0,3,-0.034899972
-18.000463,-51.143574,6.6572356,13.0,11,-0.03489767
-3.6812644,-10.453521,-1.3607932,22.0,4,-0.034895364
-7.3277054,-20.796568,-1.9291052,16.0,5,-0.034890756
-31.016094,-87.92801,-4.8863993,63.0,6,-0.034886148
-1.567402,-4.4188523,-1.2563076,33.0,0,-0.0348585
-17.023006,-47.965046,0.88839734,19.0,8,-0.034856196
-1.8871937,-5.314527,-1.3020166,32.0,1,-0.034853894
-16.66125,-46.8938,2.6081104,17.0,9,-0.03485159
-2.3373067,-6.57845,-1.3570337,38.0,2,-0.034849286
-2.8697417,-8.068084,-1.3562869,43.0,3,-0.034844678
-18.193514,-51.12157,6.6625977,13.0,11,-0.034842372
-3.6851027,-10.348974,-1.34885,7.0,4,-0.03484007
-17.886217,-50.202602,8.440892,14.0,12,-0.034837764
-7.4437222,-20.892859,-1.9404355,11.0,5,-0.03483546
-31.28929,-87.72514,-4.881166,63.0,6,-0.034830853
-20.891502,-58.50856,-1.0844227,35.0,7,-0.034826245
-1.5932516,-4.44245,-1.2645899,35.0,0,-0.034803204
-16.878973,-47.037643,0.87230617,9.0,8,-0.034800902
-1.8951972,-5.278561,-1.2948182,30.0,1,-0.034798596
-18.720892,-52.113422,2.902029,10.0,9,-0.034796294
-2.3715384,-6.601661,-1.3635212,31.0,2,-0.034793988
-17.7833,-49.476288,4.5997314,18.0,10,-0.034791686
-2.8858552,-8.024559,-1.3506554,43.0,3,-0.03478938
-17.965904,-49.92957,6.5153794,12.0,11,-0.034787077
-4.004297,-11.122363,-1.451464,11.0,4,-0.03478477
-17.956907,-49.849937,8.392084,14.0,12,-0.03478247
-7.5287576,-20.900488,-1.943573,16.0,5,-0.034780163
-21.07253,-58.37133,-1.083236,34.0,7,-0.034770947
-1.6120421,-4.445942,-1.2671782,34.0,0,-0.03474791
-17.056698,-47.016037,0.8730043,9.0,8,-0.034745604
-1.903637,-5.244437,-1.2880697,29.0,1,-0.0347433
-2.3496668,-6.469706,-1.3379527,23.0,2,-0.034738693
-17.906906,-49.279087,4.587181,17.0,10,-0.034736387
-2.9185724,-8.027432,-1.3528454,37.0,3,-0.034734085
-18.738623,-51.511913,6.7303567,13.0,11,-0.03473178
-3.798678,-10.436783,-1.363718,11.0,4,-0.034729477
-18.444445,-50.648197,8.537255,15.0,12,-0.03472717
-7.8471036,-21.548042,-2.006325,24.0,5,-0.03472487
-31.96936,-87.692215,-4.891633,63.0,6,-0.03472026
-21.365278,-58.541626,-1.0877736,35.0,7,-0.034715652
-1.6195729,-4.4185214,-1.2609664,33.0,0,-0.03469261
-17.31022,-47.200275,0.8775419,18.0,8,-0.03469031
-1.9205896,-5.234101,-1.2871699,21.0,1,-0.034688003
-19.126932,-52.0977,2.9085186,11.0,9,-0.0346857
-2.3891509,-6.5075393,-1.3474932,29.0,2,-0.034683395
-18.275286,-49.75116,4.637034,18.0,10,-0.034681093
-2.9458954,-8.015341,-1.3525326,43.0,3,-0.034678787
-18.29211,-49.74331,6.50758,12.0,11,-0.034676485
-4.109266,-11.168657,-1.4612136,12.0,4,-0.03467418
-18.604752,-50.539013,8.529746,15.0,12,-0.034671877
-7.8968067,-21.451338,-1.9998757,28.0,5,-0.03466957
-18.654642,-50.620033,-2.8272934,39.0,6,-0.034664966
-21.635942,-58.646793,-1.0911245,35.0,7,-0.034660358
-9.585572,-25.968874,7.4172363,11.0,15,-0.034658052
-1.6437114,-4.436391,-1.2676958,33.0,0,-0.034637317
-17.466534,-47.117065,0.87712306,18.0,8,-0.03463501
-1.9598567,-5.2840056,-1.301117,30.0,1,-0.03463271
-19.288523,-51.97632,2.9054832,22.0,9,-0.034630403
-2.4337099,-6.558059,-1.359705,25.0,2,-0.0346281
-18.508484,-49.847694,4.6520247,18.0,10,-0.034625795
-2.99862,-8.071671,-1.3637959,37.0,3,-0.034623493
-18.44766,-49.63077,6.501242,12.0,11,-0.03462119
-4.1579127,-11.180294,-1.464626,12.0,4,-0.034618884
-19.31011,-51.89561,8.77003,16.0,12,-0.034616582
-7.945233,-21.352686,-1.9932518,28.0,5,-0.034614276
-8.327277,-22.36747,4.6393304,20.0,13,-0.034611974
-18.831226,-50.554604,-2.8272934,39.0,6,-0.034609668
-21.908997,-58.75453,-1.0945451,35.0,7,-0.03460506
-9.672785,-25.926205,7.414648,28.0,15,-0.034602758
-1.6612204,-4.4360538,-1.2692486,33.0,0,-0.03458202
-17.635109,-47.067043,0.8773325,9.0,8,-0.034579717
-1.9906019,-5.3099775,-1.3092151,26.0,1,-0.034577414
-21.790815,-58.09664,3.2518425,17.0,9,-0.03457511
-2.4400396,-6.505407,-1.3505462,27.0,2,-0.034572806
-18.686573,-49.793976,4.653071,18.0,10,-0.0345705
-3.04483,-8.109238,-1.3719305,40.0,3,-0.034568198
-18.653599,-49.653416,6.512698,25.0,11,-0.034565892
-4.217868,-11.221457,-1.4719381,14.0,4,-0.03456359
-8.021827,-21.330416,-1.9937748,23.0,5,-0.03455898
-8.379719,-22.270279,4.6252103,55.0,13,-0.034556676
-22.167545,-58.819912,-1.0971979,36.0,7,-0.034549765
-9.778219,-25.932053,7.4260364,22.0,15,-0.03454746
-1.6876357,-4.459137,-1.2775309,30.0,0,-0.034526724
-21.447668,-56.640003,1.057162,15.0,8,-0.034524422
-2.0339808,-5.3686004,-1.3254116,22.0,1,-0.034522116
-19.706835,-51.98793,2.9137523,11.0,9,-0.034519814
-2.4648197,-6.502357,-1.351691,25.0,2,-0.034517508
-18.919624,-49.884926,4.667713,18.0,10,-0.034515206
-3.1053572,-8.183515,-1.3863224,46.0,3,-0.0345129
-18.807787,-49.537895,6.5061173,12.0,11,-0.034510598
-4.278865,-11.264192,-1.479494,16.0,4,-0.03450829
-26.420376,-69.51559,11.778579,52.0,12,-0.03450599
-8.141535,-21.42148,-2.0049307,24.0,5,-0.034503683
-8.4741535,-22.284935,4.6343694,34.0,13,-0.03450138
-26.44923,-69.51843,-3.898087,53.0,6,-0.034499075
-8.8664055,-23.267548,6.671838,10.0,15,-0.034492165
-1.6852479,-4.4063044,-1.2640723,33.0,0,-0.03447143
-19.552692,-51.096382,0.95496076,11.0,8,-0.034469124
-2.030411,-5.303231,-1.3110147,26.0,1,-0.03446682
-21.27995,-55.552044,3.1176534,12.0,9,-0.034464516
-2.5008469,-6.5285473,-1.3589417,29.0,2,-0.034462214
-19.217709,-50.142296,4.6980433,18.0,10,-0.034459908
-3.1473417,-8.20767,-1.392267,39.0,3,-0.034457605
-18.960682,-49.420044,6.4992924,25.0,11,-0.0344553
-4.3380775,-11.301079,-1.4863187,14.0,4,-0.034452997
-23.165606,-60.317024,10.233632,30.0,12,-0.03445069
-8.244831,-21.467329,-2.0119033,21.0,5,-0.03444839
-8.595552,-22.368841,4.6580296,28.0,13,-0.034446083
-22.420025,-58.314888,-3.2742424,32.0,6,-0.03444378
-10.011793,-26.02728,6.438099,6.0,14,-0.034441475
-20.863888,-54.21085,-1.0139151,28.0,7,-0.034439173
-8.960064,-23.268908,6.681155,30.0,15,-0.034436867
-1.7229036,-4.458058,-1.2806368,31.0,0,-0.03458166
-19.733818,-51.03528,0.9551004,22.0,8,-0.03457936
-2.0482068,-5.2942934,-1.3105649,29.0,1,-0.034577053
-2.5703928,-6.6406164,-1.3841285,40.0,2,-0.034572445
-3.1731188,-8.189265,-1.3910154,39.0,3,-0.034567837
-19.394253,-50.02728,6.5880136,13.0,11,-0.034565534
-4.402623,-11.350643,-1.4948496,12.0,4,-0.03456323
-22.16966,-57.127224,9.705508,23.0,12,-0.034560926
-8.349993,-21.516428,-2.0192242,21.0,5,-0.03455862
-8.662924,-22.311249,4.652305,41.0,13,-0.034556318
-22.63501,-58.26606,-3.275917,33.0,6,-0.034554012
-9.972682,-25.657965,6.355317,38.0,14,-0.03455171
-21.071838,-54.186146,-1.0148225,28.0,7,-0.034549404
-9.022321,-23.18888,6.667179,15.0,15,-0.0345471
-1.7335353,-4.43942,-1.2770132,33.0,0,-0.034526367
-19.927855,-51.00706,0.95586836,11.0,8,-0.03452406
-2.0943449,-5.3578973,-1.328111,30.0,1,-0.03452176
-20.848135,-53.307693,2.9997928,11.0,9,-0.034519453
-2.6028533,-6.655373,-1.3890896,24.0,2,-0.03451715
-19.597786,-50.084835,4.705364,18.0,10,-0.034514844
-3.1779203,-8.117438,-1.3806907,37.0,3,-0.034512542
-19.612204,-50.070175,6.602638,13.0,11,-0.034510236
-4.4646716,-11.392502,-1.5024054,14.0,4,-0.034507934
-22.392008,-57.108337,9.71552,23.0,12,-0.034505628
-8.478867,-21.624413,-2.0321233,24.0,5,-0.034503326
-8.879845,-22.635435,4.726339,42.0,13,-0.03450102
-10.094948,-25.706438,6.376013,26.0,14,-0.03449641
-22.888655,-58.25527,-1.0925206,35.0,7,-0.03449411
-9.089782,-23.123083,6.657344,10.0,15,-0.034491803
-1.7624922,-4.4674854,-1.2868483,34.0,0,-0.03447107
-20.128544,-50.994846,0.9569503,22.0,8,-0.034468766
-2.1037288,-5.326991,-1.3222623,29.0,1,-0.03446646
-21.126564,-53.46864,3.0129814,11.0,9,-0.034464158
-2.6412199,-6.684591,-1.3971035,27.0,2,-0.034461852
-19.649439,-49.70484,4.6760798,18.0,10,-0.03445955
-3.2229462,-8.148545,-1.3878868,37.0,3,-0.034457244
-19.73135,-49.86113,6.5841136,13.0,11,-0.03445494
-4.5372963,-11.459903,-1.5133736,12.0,4,-0.034452636
-8.571912,-21.639137,-2.0363066,21.0,5,-0.034448028
-8.93421,-22.54225,4.713364,35.0,13,-0.034445725
-10.195401,-25.69821,6.382761,22.0,14,-0.034441117
-21.73143,-54.74771,-1.0281562,29.0,7,-0.034438815
-9.0699,-22.838055,6.584357,20.0,15,-0.03443651
-1.788804,-4.488225,-1.2946129,33.0,0,-0.034415774
-20.37975,-51.10817,0.96040595,11.0,8,-0.034413468
-2.1475859,-5.3829656,-1.3380089,32.0,1,-0.034411166
-21.499657,-53.862015,3.0393586,12.0,9,-0.03440886
-2.6863713,-6.7300315,-1.408552,33.0,2,-0.034406558
-19.765179,-49.491627,4.6624837,18.0,10,-0.03440425
-3.2484396,-8.129908,-1.3866353,37.0,3,-0.03440195
-19.831593,-49.607624,6.55974,12.0,11,-0.034399644
-4.597174,-11.49376,-1.5199546,10.0,4,-0.03439734
-22.841526,-57.079002,9.737421,23.0,12,-0.03439504
-8.650353,-21.616486,-2.037004,24.0,5,-0.034392733
-9.052978,-22.611168,4.734353,14.0,13,-0.03439043
-10.261116,-25.602774,6.367914,26.0,14,-0.034385823
-21.937292,-54.708645,-1.0288543,29.0,7,-0.034383517
-9.148129,-22.80267,6.5833216,25.0,15,-0.034381215
-1.7958021,-4.4604487,-1.2884012,28.0,0,-0.034360476
-20.720907,-51.44108,0.9680152,11.0,8,-0.034358174
-2.1547072,-5.346517,-1.3308104,26.0,1,-0.034355868
-21.895178,-54.30159,3.0684574,12.0,9,-0.034353565
-2.7113154,-6.724254,-1.4093152,31.0,2,-0.03435126
-19.995966,-49.566452,4.6760798,18.0,10,-0.034348957
-3.2834516,-8.135004,-1.389451,31.0,3,-0.034346655
-19.992735,-49.508644,6.55584,12.0,11,-0.03434435
-4.667014,-11.551265,-1.5297042,10.0,4,-0.034342047
-23.006573,-56.914677,9.723029,23.0,12,-0.03433974
-8.776529,-21.711767,-2.0488572,21.0,5,-0.03433744
-9.1870575,-22.715933,4.7629747,21.0,13,-0.034335133
-10.350425,-25.566801,6.367914,2.0,14,-0.034330525
-9.229118,-22.774178,6.584357,35.0,15,-0.034325916
-1.806267,-4.4416265,-1.2847778,31.0,0,-0.03430518
-2.1645396,-5.317304,-1.3254116,24.0,1,-0.034300573
-22.134315,-54.346912,3.0753658,24.0,9,-0.03429827
-2.7310686,-6.705658,-1.4074073,24.0,2,-0.034295965
-20.179386,-49.522186,4.67852,18.0,10,-0.034293663
-3.2819998,-8.050325,-1.3769363,40.0,3,-0.034291357
-20.15044,-49.401794,6.5509653,12.0,11,-0.034289055
-4.738808,-11.612097,-1.5399412,8.0,4,-0.03428675
-22.725729,-55.659924,9.522167,20.0,12,-0.034284446
-8.865823,-21.7142,-2.0519948,24.0,5,-0.03428214
-9.1504755,-22.4002,4.703442,42.0,13,-0.03427984
-10.424857,-25.49444,6.3589163,26.0,14,-0.03427523
-22.406527,-54.76885,-1.0329032,30.0,7,-0.034272924
-9.283675,-22.681038,6.566757,25.0,15,-0.03427062
-1.8305677,-4.456738,-1.2909895,30.0,0,-0.034249887
-21.07344,-51.28037,0.9677359,11.0,8,-0.03424758
-2.2105062,-5.376402,-1.342058,32.0,1,-0.03424528
-22.334524,-54.295177,3.076831,12.0,9,-0.034242973
-2.7805998,-6.7596316,-1.4207639,28.0,2,-0.03424067
-20.123123,-48.895027,4.6258783,18.0,10,-0.034238365
-3.3183532,-8.058912,-1.3803779,37.0,3,-0.034236062
-22.666794,-55.021023,7.3065553,15.0,11,-0.034233756
-4.8080587,-11.665227,-1.5492033,9.0,4,-0.034231454
-22.922886,-55.587563,9.523418,20.0,12,-0.03422915
-8.941564,-21.68312,-2.0519948,24.0,5,-0.034226846
-9.254816,-22.431644,4.716799,28.0,13,-0.03422454
-10.589657,-25.641617,6.4048066,2.0,14,-0.03421993
-10.704553,-25.894194,7.507823,16.0,15,-0.034215324
-1.827608,-4.4057107,-1.2780485,33.0,0,-0.03419459
-22.653557,-54.582706,1.031542,13.0,8,-0.034192286
-2.2673728,-5.460441,-1.365003,28.0,1,-0.03418998
-22.516249,-54.198444,3.0757844,12.0,9,-0.03418768
-2.823761,-6.7970223,-1.4306859,40.0,2,-0.034185372
-20.383919,-49.04158,4.646447,36.0,10,-0.03418307
-3.3464634,-8.047281,-1.3803779,37.0,3,-0.034180764
-22.884644,-55.00388,7.314842,16.0,11,-0.034178462
-4.891469,-11.750999,-1.5628526,11.0,4,-0.034176156
-23.130457,-55.54003,9.52905,20.0,12,-0.034173854
-9.020263,-21.659134,-2.0526922,24.0,5,-0.034171548
-9.379877,-22.51156,4.740459,49.0,13,-0.034169246
-11.532018,-27.649475,6.916345,7.0,14,-0.034164637
-22.491081,-53.89874,-1.0194299,28.0,7,-0.034162335
-9.525895,-22.817123,6.6252503,10.0,15,-0.03416003
-1.8631297,-4.4474134,-1.2920247,31.0,0,-0.034139294
-22.857084,-54.534653,1.0321354,13.0,8,-0.03413699
-2.2924485,-5.46687,-1.3686022,29.0,1,-0.034134686
-2.8277223,-6.740055,-1.4207639,40.0,2,-0.034130078
-20.542639,-48.940735,4.6436577,36.0,10,-0.03412777
-3.3684154,-8.02098,-1.377875,37.0,3,-0.03412547
-23.01499,-54.777256,7.2953434,15.0,11,-0.034123164
-4.9593806,-11.797904,-1.5713835,6.0,4,-0.03412086
-9.105081,-21.649553,-2.0547836,25.0,5,-0.034116253
-10.814497,-25.701555,5.4201207,44.0,13,-0.03411395
-9.266645,-22.012217,-1.2516668,31.0,6,-0.034111645
-9.608062,-22.812084,5.714657,39.0,14,-0.034109343
-22.59367,-53.6172,-1.0155904,28.0,7,-0.034107037
-9.619747,-22.817553,6.6350856,15.0,15,-0.034104735
-1.871869,-4.42487,-1.287366,33.0,0,-0.034083996
-23.463509,-55.437923,1.0507746,14.0,8,-0.034081694
-2.3297546,-5.5019026,-1.3793999,35.0,1,-0.034079388
-23.526709,-55.533222,3.160778,13.0,9,-0.034077086
-2.8619542,-6.755451,-1.4261066,45.0,2,-0.03407478
-20.893742,-49.29431,4.6840982,18.0,10,-0.034072477
-3.4079607,-8.036451,-1.382568,43.0,3,-0.03407017
-23.334757,-54.99994,7.335804,16.0,11,-0.03406787
-5.0331116,-11.857266,-1.5816205,9.0,4,-0.034065567
-23.852745,-56.1663,9.664835,45.0,12,-0.03406326
-9.191499,-21.643316,-2.0572243,25.0,5,-0.03406096
-10.881111,-25.60944,5.408672,53.0,13,-0.034058653
-9.306705,-21.893345,-1.2467473,52.0,6,-0.03405635
-9.692971,-22.790958,5.717806,33.0,14,-0.034054045
-9.437669,-22.179926,-0.42074263,5.0,7,-0.034051742
-9.719008,-22.83005,6.648544,15.0,15,-0.034049436
-1.8850265,-4.4129796,-1.2858131,31.0,0,-0.0340287
-24.585749,-57.52916,1.092032,20.0,8,-0.034026396
-2.293784,-5.3647256,-1.3470069,30.0,1,-0.034024093
-23.745554,-55.509525,3.1641276,13.0,9,-0.034021787
-2.8631256,-6.6930737,-1.4150395,24.0,2,-0.034019485
-23.069395,-53.902866,5.129638,21.0,10,-0.034017183
-3.4429905,-8.04085,-1.3853837,37.0,3,-0.034014877
-23.646982,-55.199154,7.3733397,17.0,11,-0.034012575
-5.1143517,-11.932679,-1.5940511,9.0,4,-0.03401027
-24.078241,-56.151688,9.676724,22.0,12,-0.034007967
-9.263852,-21.603775,-2.056527,40.0,5,-0.03400566
-9.368889,-21.82769,-1.2448632,45.0,6,-0.034001052
-9.750169,-22.705057,5.7047586,37.0,14,-0.03399875
-9.449518,-21.99435,-0.41784552,35.0,7,-0.033996444
-9.806268,-22.813734,6.6537204,20.0,15,-0.033994142
-1.9294915,-4.4737806,-1.3054833,31.0,0,-0.033973407
-26.736935,-61.96337,1.1779677,32.0,8,-0.0339711
-2.3619292,-5.47119,-1.3758006,33.0,1,-0.0339688
-23.240694,-53.809105,3.071807,12.0,9,-0.033966493
-2.8926988,-6.697457,-1.4180925,47.0,2,-0.03396419
-23.279533,-53.873222,5.134519,21.0,10,-0.033961885
-3.4867153,-8.065047,-1.3916413,39.0,3,-0.033959582
-23.894682,-55.243805,7.3904014,17.0,11,-0.033957276
-5.188296,-11.9894495,-1.6040444,7.0,4,-0.033954974
-24.355724,-56.255825,9.709263,23.0,12,-0.03395267
-9.335248,-21.562162,-2.0556552,28.0,5,-0.033950366
-9.448204,-21.802181,-1.2452818,59.0,6,-0.033945758
-8.996037,-20.748865,5.221114,27.0,14,-0.033943452
-9.497586,-21.89519,-0.41658893,40.0,7,-0.03394115
-9.863543,-22.72797,6.638709,10.0,15,-0.033938844
-1.9427825,-4.4617043,-1.3039304,28.0,0,-0.03391811
-9.595862,-22.026903,0.41938132,40.0,8,-0.033915807
-2.3685544,-5.4343295,-1.3686022,35.0,1,-0.0339135
-2.9058578,-6.663924,-1.4131315,56.0,2,-0.033908892
-3.5282788,-8.083604,-1.3969599,42.0,3,-0.033904284
-24.130268,-55.258305,7.4035635,17.0,11,-0.033901982
-5.273032,-12.069494,-1.6172063,7.0,4,-0.033899676
-24.518719,-56.094444,9.696122,23.0,12,-0.033897374
-9.40966,-21.52762,-2.055481,25.0,5,-0.033895068
-9.329249,-21.333517,4.5259895,6.0,13,-0.033892766
-9.537057,-21.798346,-1.2469566,45.0,6,-0.03389046
-9.04106,-20.654856,5.2053676,39.0,14,-0.033888157
-9.57155,-21.856407,-0.4164842,55.0,7,-0.03388585
-9.94359,-22.695171,6.6392264,15.0,15,-0.03388355
-1.936577,-4.405377,-1.2894366,35.0,0,-0.033862814
-9.645319,-21.93104,0.4181946,52.0,8,-0.03386051
-2.4071305,-5.470621,-1.3798498,31.0,1,-0.033858206
-9.737777,-22.120312,1.266635,40.0,9,-0.0338559
-2.9306836,-6.657334,-1.4138948,47.0,2,-0.033853598
-24.589842,-55.831795,5.3374176,25.0,10,-0.033851292
-3.580371,-8.125469,-1.4063461,35.0,3,-0.03384899
-9.629111,-21.84244,2.930958,31.0,11,-0.033846684
-5.34557,-12.120033,-1.6264684,10.0,4,-0.03384438
-24.607517,-55.766346,9.654198,22.0,12,-0.033842076
-9.50164,-21.532923,-2.0591416,28.0,5,-0.033839773
-9.36402,-21.21102,4.506909,33.0,13,-0.033837467
-9.625999,-21.794157,-1.2486314,35.0,6,-0.033835165
-9.186357,-20.788939,5.247208,19.0,14,-0.033832863
-9.658298,-21.84664,-0.416938,45.0,7,-0.033830557
-10.508026,-23.757475,6.9606795,10.0,15,-0.033828255
-1.9942573,-4.493943,-1.317389,33.0,0,-0.033807516
-9.716944,-21.886272,0.41798514,57.0,8,-0.033805214
-2.4198837,-5.447938,-1.3762506,43.0,1,-0.033802908
-9.769728,-21.994806,1.2612966,52.0,9,-0.033800606
-2.9523098,-6.643475,-1.4131315,45.0,2,-0.0337983
-9.978587,-22.443897,2.148912,4.0,10,-0.033795998
-3.6119237,-8.120141,-1.4075974,35.0,3,-0.03379369
-9.739193,-21.884869,2.941195,31.0,11,-0.03379139
-5.436291,-12.210108,-1.6410927,10.0,4,-0.033789083
-24.809988,-55.724136,9.661081,22.0,12,-0.03378678
-9.645654,-21.654324,-2.0739582,25.0,5,-0.03378448
-9.477959,-21.267866,4.5259895,59.0,13,-0.033782173
-9.745939,-21.858927,-1.2542837,3.0,6,-0.03377987
-9.258867,-20.756746,5.247208,43.0,14,-0.033777565
-9.751871,-21.861973,-0.41784552,35.0,7,-0.033775263
-9.333376,-20.913975,6.1366,4.0,15,-0.033772957
-2.002034,-4.469324,-1.3122126,28.0,0,-0.03375222
-9.80173,-21.881304,0.4185087,60.0,8,-0.033749916
-2.4467034,-5.459445,-1.3811995,40.0,1,-0.033747613
-9.837455,-21.940525,1.2601453,57.0,9,-0.033745307
-2.9875343,-6.659999,-1.4188558,57.0,2,-0.033743005
-9.926346,-22.118088,2.121022,33.0,10,-0.033740703
-3.676845,-8.1928215,-1.4223022,39.0,3,-0.033738397
-9.732842,-21.67679,2.9175522,23.0,11,-0.033736095
-5.5166063,-12.280743,-1.653036,10.0,4,-0.03373379
-9.951047,-22.142086,3.8448467,3.0,12,-0.033731487
-9.757133,-21.700478,-2.0816276,15.0,5,-0.03372918
-9.562926,-21.268549,4.532859,6.0,13,-0.03372688
-9.357239,-20.791681,5.263855,40.0,14,-0.03372227
-9.858499,-21.895264,-0.419137,15.0,7,-0.033719964
-9.165118,-20.345806,5.979238,55.0,15,-0.033717662
-2.0096834,-4.4468164,-1.3075538,33.0,0,-0.033696923
-9.896177,-21.887041,0.41927662,55.0,8,-0.03369462
-2.4826114,-5.488157,-1.3906474,43.0,1,-0.03369232
-9.921394,-21.922426,1.2610873,57.0,9,-0.033690013
-3.012032,-6.655421,-1.4200007,54.0,2,-0.03368771
-9.962658,-22.003374,2.113178,57.0,10,-0.033685405
-3.6793375,-8.122358,-1.4122906,39.0,3,-0.033683103
-9.80435,-21.633646,2.9163334,40.0,11,-0.033680797
-5.6078067,-12.368078,-1.6674166,15.0,4,-0.033678494
-9.868332,-21.754623,3.7835243,40.0,12,-0.03367619
-15.141923,-33.38019,-3.2068083,6.0,5,-0.033673886
-9.848869,-21.701645,4.632461,20.0,13,-0.03367158
-9.602234,-21.138584,5.3601336,22.0,14,-0.033666972
-24.784222,-54.535286,-1.0456085,31.0,7,-0.03366467
-9.2176895,-20.273243,5.9673324,18.0,15,-0.033662364
-2.0316076,-4.4538355,-1.311695,30.0,0,-0.03364163
-10.002404,-21.917854,0.42053318,5.0,8,-0.033639327
-2.5017536,-5.4794574,-1.3906474,45.0,1,-0.03363702
-10.020263,-21.936712,1.2639135,52.0,9,-0.03363472
-3.1135535,-6.816301,-1.456636,35.0,2,-0.033632413
-10.041059,-21.972092,2.1135268,57.0,10,-0.03363011
-3.6822064,-8.053774,-1.4025916,29.0,3,-0.033627804
-9.869073,-21.575823,2.913165,52.0,11,-0.033625502
-5.685638,-12.424242,-1.6776536,15.0,4,-0.033623196
-9.87596,-21.570967,3.7575562,40.0,12,-0.033620894
-15.359538,-33.548138,-3.2280743,13.0,5,-0.033618588
-9.89186,-21.595737,4.6171966,75.0,13,-0.033616286
-9.719008,-21.198824,5.383979,40.0,14,-0.033611678
-24.826036,-54.1249,-1.0393956,61.0,7,-0.03360937
-9.512392,-20.729055,6.1112356,33.0,15,-0.03360707
-2.0536058,-4.4607553,-1.3158361,30.0,0,-0.033586334
-25.540947,-55.453518,1.0656788,33.0,8,-0.03358403
-2.5208647,-5.4706917,-1.3906474,45.0,1,-0.033581726
-10.140261,-21.995918,1.2693565,38.0,9,-0.03357942
-3.09541,-6.7144613,-1.4371735,35.0,2,-0.033577118
-10.123533,-21.949574,2.114747,49.0,10,-0.033574812
-3.7020185,-8.022935,-1.3994628,32.0,3,-0.03357251
-9.970122,-21.597113,2.920721,40.0,11,-0.033570204
-5.778914,-12.512448,-1.6922778,7.0,4,-0.0335679
-9.894021,-21.412634,3.7359684,37.0,12,-0.033565596
-15.592708,-33.745728,-3.2523036,14.0,5,-0.033563294
-9.953179,-21.53078,4.6107087,61.0,13,-0.033560988
-9.789674,-21.157692,5.382179,45.0,14,-0.03355638
-25.441559,-54.959778,-1.0571271,32.0,7,-0.033554077
-9.915927,-21.410942,6.322432,34.0,15,-0.033551775
-2.0366035,-4.38348,-1.2951305,23.0,0,-0.033531036
-25.875126,-55.66686,1.0715079,17.0,8,-0.033528734
-2.5481632,-5.479529,-1.3951464,40.0,1,-0.033526428
-25.525164,-54.863853,3.171245,14.0,9,-0.033524126
-3.103921,-6.6715755,-1.4303043,35.0,2,-0.03352182
-10.200931,-21.915907,2.114921,41.0,10,-0.033519518
-3.6674612,-7.8756576,-1.3759978,37.0,3,-0.03351721
-10.038737,-21.547785,2.918771,34.0,11,-0.03351491
-5.877063,-12.609153,-1.7081208,11.0,4,-0.033512603
-9.932814,-21.300983,3.722515,27.0,12,-0.0335103
-15.936076,-34.17502,-3.299019,14.0,5,-0.033507995
-10.043211,-21.527933,4.617578,75.0,13,-0.033505693
-9.883256,-21.16577,5.3929768,24.0,14,-0.033501085
-26.393293,-56.49759,-1.0884717,35.0,7,-0.033498783
-9.895721,-21.173183,6.262386,33.0,15,-0.033496477
-2.03139,-4.3326163,-1.2821896,17.0,0,-0.03347574
-26.383492,-56.246048,1.0844227,19.0,8,-0.033473436
-2.5681028,-5.4723654,-1.3955964,36.0,1,-0.033471134
-25.427073,-54.157917,3.1355522,25.0,9,-0.033468828
-3.1789207,-6.7708826,-1.4539646,28.0,2,-0.033466525
-10.386641,-22.112799,2.1374075,12.0,10,-0.03346422
-3.7310543,-7.9396844,-1.389451,43.0,3,-0.033461917
-10.19244,-21.679682,2.9414387,25.0,11,-0.033459615
-5.9708905,-12.694543,-1.7225015,8.0,4,-0.03345731
-10.065977,-21.391298,3.7444158,20.0,12,-0.033455007
-16.256317,-34.546444,-3.3403308,14.0,5,-0.0334527
-10.142552,-21.544254,4.628645,41.0,13,-0.0334504
-10.849198,-23.024431,5.8761716,30.0,14,-0.03344579
-27.328783,-57.971523,-1.1186993,38.0,7,-0.033443484
-9.954737,-21.10706,6.2530684,28.0,15,-0.033441182
-2.0968995,-4.4320207,-1.3137655,22.0,0,-0.033420444
-26.71142,-56.431957,1.0897981,19.0,8,-0.03341814
-2.5871897,-5.4633675,-1.3955964,33.0,1,-0.03341584
-25.481712,-53.785454,3.1191187,25.0,9,-0.033413533
-3.2084203,-6.7721643,-1.456636,26.0,2,-0.03341123
-26.761024,-56.460293,5.466408,28.0,10,-0.033408925
-3.750283,-7.9087634,-1.3863224,21.0,3,-0.033406623
-10.398234,-21.918377,2.9787307,37.0,11,-0.033404317
-6.09092,-12.833231,-1.7441941,8.0,4,-0.033402015
-10.16431,-21.405993,3.753176,43.0,12,-0.03339971
-16.448597,-34.64067,-3.3549733,14.0,5,-0.033397406
-10.483893,-22.069094,4.749236,49.0,13,-0.0333951
-23.200048,-48.815216,-2.832527,20.0,6,-0.0333928
-10.54709,-22.18213,5.6705666,52.0,14,-0.033390492
-27.603117,-58.027462,-1.1216313,38.0,7,-0.03338819
-10.000124,-21.012877,6.235469,33.0,15,-0.033385884
-2.084892,-4.367143,-1.2966834,15.0,0,-0.03336515
-2.6196876,-5.4824357,-1.4027947,24.0,1,-0.03336054
-25.624512,-53.60248,3.1136756,25.0,9,-0.03335824
-3.2244194,-6.7449822,-1.4532013,21.0,2,-0.033355933
-27.024998,-56.506733,5.4800043,28.0,10,-0.03335363
-3.6022317,-7.528552,-1.3218714,9.0,3,-0.033351324
-10.461824,-21.85509,2.9750745,25.0,11,-0.033349022
-6.209418,-12.965865,-1.7651558,5.0,4,-0.033346716
-10.289329,-21.47549,3.7716353,43.0,12,-0.033344414
-16.543589,-34.52914,-3.3497438,14.0,5,-0.033342108
-10.467519,-21.837622,4.707258,42.0,13,-0.033339806
-23.34094,-48.672703,-2.828968,39.0,6,-0.0333375
-9.987186,-20.816893,5.33044,8.0,14,-0.033335198
-10.061705,-20.953459,6.228222,14.0,15,-0.03333059
-2.0950933,-4.3493958,-1.2935777,17.0,0,-0.033309855
-2.63627,-5.4679923,-1.4014452,22.0,1,-0.033305246
-25.887823,-53.67101,3.1228867,12.0,9,-0.03330294
-3.2795026,-6.799113,-1.4673213,19.0,2,-0.03330064
-27.197836,-56.361813,5.475124,28.0,10,-0.033298332
-3.6241953,-7.507037,-1.320307,9.0,3,-0.03329603
-10.564813,-21.87385,2.9826305,5.0,11,-0.033293724
-6.311641,-13.062077,-1.7812425,5.0,4,-0.03329142
-10.384005,-21.480349,3.7788315,40.0,12,-0.033289116
-16.912022,-34.984203,-3.3995967,15.0,5,-0.033286814
-10.49838,-21.707275,4.687032,56.0,13,-0.033284508
-23.57681,-48.727573,-2.8369231,40.0,6,-0.033282205
-10.078469,-20.820492,5.340338,22.0,14,-0.0332799
-10.505405,-21.68317,6.455982,19.0,15,-0.03327529
-2.1465,-4.4146576,-1.3153185,13.0,0,-0.03328705
-34.374973,-70.6669,1.3716893,59.0,8,-0.033284746
-2.6605573,-5.467054,-1.4036945,12.0,1,-0.03328244
-3.3044007,-6.7870474,-1.4673213,16.0,2,-0.033277832
-27.927711,-57.33647,5.5797105,30.0,10,-0.03327553
-3.6456287,-7.481273,-1.318117,9.0,3,-0.033273224
-10.485724,-21.508448,2.9380264,25.0,11,-0.03327092
-6.4360523,-13.195864,-1.8026915,6.0,4,-0.033268616
-10.410429,-21.344543,3.7613106,40.0,12,-0.033266313
-17.151968,-35.151176,-3.4219086,7.0,5,-0.033264007
-10.583038,-21.679237,4.689322,56.0,13,-0.033261705
-23.822739,-48.779022,-2.8449829,40.0,6,-0.0332594
-11.243757,-23.012333,5.9130635,43.0,14,-0.033257097
-10.582727,-21.649841,6.457018,19.0,15,-0.03325249
-2.1925251,-4.4695773,-1.3339534,6.0,0,-0.033231754
-35.296066,-71.95287,1.3989152,63.0,8,-0.033229448
-2.6649356,-5.4302106,-1.3964962,5.0,1,-0.033227146
-33.988598,-69.22641,4.041697,46.0,9,-0.03322484
-3.3194165,-6.7578497,-1.4635051,14.0,2,-0.033222537
-31.7972,-64.70594,6.3076353,47.0,10,-0.03322023
-3.677387,-7.4833255,-1.32062,6.0,3,-0.03321793
-10.478169,-21.313227,2.91609,23.0,11,-0.033215623
-6.5656366,-13.349015,-1.8265779,6.0,4,-0.03321332
-10.47179,-21.281487,3.7566178,30.0,12,-0.033211015
-17.385443,-35.316322,-3.4438722,7.0,5,-0.033208713
-10.694759,-21.725048,4.7068768,57.0,13,-0.033206407
-24.046137,-48.825176,-2.85231,41.0,6,-0.033204105
-11.54739,-23.43641,6.0318375,32.0,14,-0.0332018
-24.718496,-50.14622,-0.9758688,25.0,7,-0.033199497
-10.943617,-22.191463,6.629909,20.0,15,-0.03319719
-2.2244658,-4.4969134,-1.3443062,1.0,0,-0.033176456
-2.6665802,-5.385947,-1.3874981,5.0,1,-0.033171847
-34.19814,-69.04291,4.037929,46.0,9,-0.033169545
-3.3479083,-6.75912,-1.4661764,9.0,2,-0.03316724
-33.74196,-68.09204,6.6485887,55.0,10,-0.033164937
-3.6876917,-7.438587,-1.3149883,3.0,3,-0.03316263
-10.666283,-21.505932,2.9475322,31.0,11,-0.03316033
-6.691603,-13.486055,-1.8485144,6.0,4,-0.033158023
-10.716403,-21.588064,3.8173141,30.0,12,-0.03315572
-17.531687,-35.31737,-3.4496243,15.0,5,-0.033153415
-10.806333,-21.759676,4.722523,42.0,13,-0.033151112
-24.301737,-48.91265,-2.8623583,41.0,6,-0.033148807
-11.468662,-23.073128,5.948606,13.0,14,-0.033146504
-10.768034,-21.644617,6.4777236,34.0,15,-0.033141896
-2.2522259,-4.513321,-1.3515531,1.0,0,-0.03312116
-2.6783998,-5.3626585,-1.383899,3.0,1,-0.033116553
-3.3460314,-6.6964626,-1.4551095,7.0,2,-0.033111945
-33.89034,-67.79565,6.631158,55.0,10,-0.03310964
-3.6164443,-7.2313256,-1.2805728,3.0,3,-0.033107337
-10.998868,-21.983402,3.0182164,39.0,11,-0.03310503
-6.858587,-13.70226,-1.8814191,3.0,4,-0.03310273
-10.898724,-21.764244,3.8551714,28.0,12,-0.033100426
-17.985844,-35.916893,-3.514294,16.0,5,-0.03309812
-10.832098,-21.62177,4.700771,49.0,13,-0.033095818
-24.507217,-48.897167,-2.8664408,41.0,6,-0.033093512
-10.891402,-21.721212,5.6098294,40.0,14,-0.03309121
-11.982118,-23.875671,7.1579,16.0,15,-0.0330866
-2.3027115,-4.5744543,-1.3722585,1.0,0,-0.033065863
-36.097977,-71.67933,1.4008698,63.0,8,-0.03306356
-2.7444499,-5.447255,-1.4081936,5.0,1,-0.033061255
-3.3897107,-6.725064,-1.4638867,4.0,2,-0.033056647
-34.36182,-68.14303,6.676827,56.0,10,-0.033054344
-11.050494,-21.895256,3.0113916,3.0,11,-0.033049736
-7.1202173,-14.101746,-1.9396726,6.0,4,-0.033047434
-11.052111,-21.879467,3.882391,49.0,12,-0.033045128
-18.220694,-36.070854,-3.53556,16.0,5,-0.033042826
-10.972142,-21.71174,4.7286286,21.0,13,-0.03304052
-24.641718,-48.74002,-2.8622537,41.0,6,-0.033038218
-10.927573,-21.604813,5.589584,35.0,14,-0.03303591
-24.873896,-49.156635,-0.9616276,23.0,7,-0.03303361
-10.9939165,-21.717142,6.52224,20.0,15,-0.033031303
-2.3256624,-4.5801687,-1.3763998,1.0,0,-0.03301057
-36.387814,-71.63133,1.4024056,63.0,8,-0.033008263
-2.7616823,-5.434168,-1.4072938,5.0,1,-0.03300596
-36.456257,-71.70406,4.2156615,52.0,9,-0.033003658
-3.4238422,-6.7341914,-1.4684662,2.0,2,-0.033001352
-7.4369636,-14.602166,-2.012063,21.0,4,-0.032992136
-11.201064,-21.983318,3.9077334,7.0,12,-0.032989834
-18.397156,-36.10644,-3.5453212,16.0,5,-0.032987528
-11.227077,-22.024881,4.805334,29.0,13,-0.032985225
-24.7264,-48.48646,-2.8524146,20.0,6,-0.03298292
-10.9861,-21.53355,5.5810356,43.0,14,-0.032980617
-24.928972,-48.84153,-0.95715976,23.0,7,-0.03297831
-11.067017,-21.673473,6.520687,30.0,15,-0.03297601
-2.33283,-4.554828,-1.3712233,1.0,0,-0.032955274
-2.7895238,-5.441836,-1.4117929,3.0,1,-0.032950666
-37.70704,-73.527725,4.330591,53.0,9,-0.03294836
-3.4347858,-6.6977415,-1.4631234,2.0,2,-0.032946058
-7.566805,-14.729735,-2.0332682,25.0,4,-0.03293684
-11.931456,-23.216106,4.1342506,50.0,12,-0.032934535
-18.541288,-36.07745,-3.5488074,8.0,5,-0.032932233
-11.309277,-21.996035,4.807624,29.0,13,-0.032929927
-24.694515,-48.00912,-2.8293867,19.0,6,-0.032927625
-11.103104,-21.576513,5.602181,33.0,14,-0.03292532
