x,y,z,intensity,ring,time
2.0502598,1.62036,-0.60331875,48.0,1,-0.09644579
6.643951,5.250843,0.44380894,30.0,9,-0.09644348
2.2445133,1.773246,-0.5560174,38.0,2,-0.09644118
9.816153,7.752339,1.0943274,33.0,10,-0.09643888
2.4946623,1.9694587,-0.50340617,24.0,3,-0.096436575
17.644438,13.924741,2.7598534,17.0,11,-0.09643427
2.775302,2.1902292,-0.43409866,33.0,4,-0.09643196
33.335934,26.298834,6.7251186,17.0,12,-0.09642966
3.243088,2.5575628,-0.3613477,31.0,5,-0.09642736
32.639416,25.730844,8.078853,18.0,13,-0.09642506
3.6456504,2.872971,-0.24325755,37.0,6,-0.09642275
33.717335,26.571095,9.910893,9.0,14,-0.096420445
4.2255235,3.3287442,-0.093893945,24.0,7,-0.09641814
23.959072,18.867481,8.171435,32.0,15,-0.09641584
1.917232,1.5060047,-0.65325934,40.0,0,-0.0963951
5.2451825,4.118667,0.11640756,47.0,8,-0.096392795
2.0862794,1.6376176,-0.6123168,50.0,1,-0.09639049
6.4995055,5.1017637,0.43302774,26.0,9,-0.09638819
2.2503817,1.7657926,-0.5560174,34.0,2,-0.09638589
9.81359,7.6976085,1.0911899,33.0,10,-0.09638358
2.4778616,1.9428929,-0.49871314,28.0,3,-0.09638128
17.267122,13.534282,2.6938002,11.0,11,-0.096378975
2.7403667,2.1479487,-0.42751768,40.0,4,-0.09637667
33.562912,26.297785,6.753277,43.0,12,-0.09637436
3.251551,2.5467951,-0.3613477,32.0,5,-0.09637206
3.738516,2.9261081,-0.24880517,44.0,6,-0.096367456
24.800354,19.411049,7.2708683,31.0,14,-0.09636515
4.30741,3.3701649,-0.09546466,28.0,7,-0.096362844
32.80627,25.658731,11.15976,12.0,15,-0.09636054
1.9343998,1.5091466,-0.6574004,41.0,0,-0.09633981
2.0701828,1.6139156,-0.6060182,39.0,1,-0.096335195
6.5771403,5.125696,0.43700528,33.0,9,-0.09633289
2.2608702,1.7619411,-0.5571623,33.0,2,-0.09633059
9.818628,7.6491065,1.0889238,27.0,10,-0.09632829
2.495201,1.9431607,-0.5009032,32.0,3,-0.09632598
16.276514,12.670919,2.5326889,2.0,11,-0.09632368
2.7807453,2.1639738,-0.4326362,45.0,4,-0.096321374
33.916447,26.384226,6.8058386,17.0,12,-0.09631907
3.2038004,2.4913979,-0.3550725,33.0,5,-0.09631676
33.60595,26.133272,8.275005,19.0,13,-0.09631446
3.724546,2.895309,-0.24723509,30.0,6,-0.09631216
24.615606,19.128252,7.197084,25.0,14,-0.096309856
4.2733517,3.3195324,-0.094452426,25.0,7,-0.096307546
32.025898,24.868706,10.864706,11.0,15,-0.09630524
1.932281,1.4961323,-0.6548122,44.0,0,-0.09628451
5.170322,4.003292,0.114138745,38.0,8,-0.09628221
2.0696392,1.6019086,-0.60421854,36.0,1,-0.096279904
6.566557,5.080708,0.43512118,30.0,9,-0.096277595
2.2875009,1.7692581,-0.5621233,34.0,2,-0.09627529
9.7882805,7.567975,1.0824744,33.0,10,-0.09627299
2.5226245,1.9497066,-0.5049705,39.0,3,-0.09627069
16.30022,12.598248,2.5295203,4.0,11,-0.09626838
2.7851408,2.1518261,-0.43214872,30.0,4,-0.096266076
33.730064,26.050741,6.750148,25.0,12,-0.096263774
3.2440186,2.5045514,-0.35855874,38.0,5,-0.09626147
3.7035077,2.8572354,-0.24514163,34.0,6,-0.09625686
24.994173,19.275927,7.2870646,26.0,14,-0.09625456
4.37042,3.3705418,-0.09633729,30.0,7,-0.096252255
24.16585,18.630386,8.176094,13.0,15,-0.09624995
1.9267701,1.4811369,-0.65118873,42.0,0,-0.09622921
5.169103,3.9721322,0.11378969,51.0,8,-0.09622691
2.0523157,1.5765048,-0.59747,43.0,1,-0.096224606
6.5534515,5.03228,0.43302774,27.0,9,-0.096222304
2.2671912,1.7409362,-0.5556358,41.0,2,-0.096219994
9.849406,7.560453,1.0863092,33.0,10,-0.09621769
2.516878,1.9312681,-0.5024676,40.0,3,-0.09621539
16.102146,12.351157,2.4917407,4.0,11,-0.09621309
2.811913,2.1560977,-0.43507358,38.0,4,-0.09621078
33.81277,25.917332,6.747645,43.0,12,-0.096208476
3.2495792,2.4907875,-0.3582101,33.0,5,-0.09620617
3.7959087,2.9074438,-0.25058457,30.0,6,-0.09620157
24.966927,19.116291,7.2596207,26.0,14,-0.09619926
4.4018,3.3690841,-0.09675614,32.0,7,-0.09619696
24.197155,18.51351,8.163671,13.0,15,-0.096194655
1.9472859,1.4861219,-0.6563651,43.0,0,-0.09617392
5.2624307,4.014708,0.11553493,54.0,8,-0.09617161
2.0392113,1.555151,-0.5920712,47.0,1,-0.09616931
6.6138635,5.0420647,0.43585387,42.0,9,-0.096167006
2.2357833,1.7044448,-0.54647696,41.0,2,-0.0961647
9.796504,7.465641,1.0775936,33.0,10,-0.09616239
2.5581734,1.9488065,-0.50935066,45.0,3,-0.09616009
16.096207,12.257588,2.484185,6.0,11,-0.09615779
2.8115242,2.1402576,-0.4338549,37.0,4,-0.09615549
33.720673,25.660387,6.711352,34.0,12,-0.096153185
3.239227,2.4649513,-0.35611835,35.0,5,-0.096150875
3.732902,2.8385658,-0.24576966,35.0,6,-0.09614627
24.623928,18.717695,7.1408463,17.0,14,-0.09614397
4.2734213,3.247233,-0.09368452,30.0,7,-0.09614166
32.23038,24.48194,10.845036,23.0,15,-0.09613936
1.9401438,1.469982,-0.65222406,47.0,0,-0.09611862
5.2780056,3.9975224,0.11556984,49.0,8,-0.09611632
2.05861,1.5586106,-0.5961203,41.0,1,-0.09611401
6.617092,5.008098,0.43491185,33.0,9,-0.09611171
2.2996416,1.7404668,-0.5605969,37.0,2,-0.096109405
9.905126,7.4939113,1.0866578,33.0,10,-0.0961071
2.579141,1.9505885,-0.5121665,52.0,3,-0.0961048
15.139719,11.445924,2.330386,4.0,11,-0.09610249
2.8189776,2.1304312,-0.4338549,31.0,4,-0.09610019
33.880978,25.596102,6.725431,25.0,12,-0.09609789
3.2748377,2.4740455,-0.35908166,48.0,5,-0.096095584
3.679026,2.7773843,-0.2415828,31.0,6,-0.09609097
24.670452,18.617535,7.1354475,22.0,14,-0.09608867
4.300695,3.2443378,-0.09403357,30.0,7,-0.09608637
32.32798,24.3786,10.849177,23.0,15,-0.09608406
1.9020348,1.4306855,-0.6377302,37.0,0,-0.09606332
5.2072196,3.9153788,0.11371988,40.0,8,-0.09606102
2.0578072,1.5467311,-0.5943207,45.0,1,-0.09605872
6.505195,4.887791,0.42643344,26.0,9,-0.09605642
2.2868674,1.7182776,-0.5560174,45.0,2,-0.09605411
9.749616,7.3228807,1.0667863,22.0,10,-0.096051805
2.5890927,1.9439462,-0.5127922,50.0,3,-0.0960495
15.260547,11.45378,2.3428164,6.0,11,-0.0960472
2.8533912,2.1408298,-0.43799844,39.0,4,-0.09604489
33.95273,25.464647,6.7219896,17.0,12,-0.09604259
3.2675145,2.4506454,-0.35733855,45.0,5,-0.096040286
3.7126725,2.7824912,-0.24315289,33.0,6,-0.096035674
24.894365,18.650492,7.1813374,10.0,14,-0.09603337
4.27678,3.2029352,-0.09326566,30.0,7,-0.09603107
32.443813,24.28875,10.8595295,11.0,15,-0.09602877
1.9147571,1.4298162,-0.6403184,40.0,0,-0.09600803
5.19842,3.880433,0.11323121,33.0,8,-0.09600572
2.0647554,1.5407045,-0.59477055,44.0,1,-0.09600342
6.575792,4.906805,0.42999226,27.0,9,-0.09600112
2.3007202,1.7161529,-0.5579255,42.0,2,-0.095998816
9.789491,7.299525,1.0683551,35.0,10,-0.09599651
2.5626023,1.9101061,-0.50622195,37.0,3,-0.095994204
15.165136,11.2996235,2.3220987,20.0,11,-0.0959919
2.8206801,2.1017036,-0.431905,36.0,4,-0.0959896
51.0642,38.03435,10.084705,28.0,12,-0.09598729
3.2456846,2.4166179,-0.35402662,41.0,5,-0.09598499
32.877792,24.470655,7.9666576,17.0,13,-0.095982686
3.7608209,2.7981267,-0.245665,35.0,6,-0.09598038
25.511114,18.980783,7.341053,21.0,14,-0.095978074
4.364396,3.246019,-0.09494109,30.0,7,-0.09597577
24.61135,18.297998,8.217505,13.0,15,-0.09597347
1.9443153,1.4418708,-0.6486005,40.0,0,-0.095952734
5.098809,3.7798138,0.11078788,42.0,8,-0.09595043
2.057328,1.5245664,-0.5911713,47.0,1,-0.09594812
6.5294456,4.8385935,0.42591006,26.0,9,-0.09594582
2.2985106,1.7026716,-0.5560174,34.0,2,-0.09594352
9.683947,7.1709833,1.0542358,33.0,10,-0.095941216
2.6054404,1.9286283,-0.51341796,50.0,3,-0.095938906
15.1307125,11.196139,2.3111303,26.0,11,-0.095936604
2.8180592,2.0852542,-0.43044254,42.0,4,-0.0959343
51.10109,37.799053,10.067184,28.0,12,-0.095932
3.2697015,2.4176865,-0.35576975,40.0,5,-0.09592969
32.971382,24.370836,7.9697104,17.0,13,-0.09592739
3.7588327,2.7773342,-0.24493231,37.0,6,-0.095925085
25.015936,18.483828,7.180887,20.0,14,-0.09592278
4.3976564,3.2481601,-0.09542976,27.0,7,-0.09592048
24.690536,18.230057,8.223717,6.0,15,-0.09591817
1.9397533,1.4285415,-0.64549476,40.0,0,-0.095897436
5.137081,3.7818513,0.11134635,31.0,8,-0.095895134
2.0576634,1.514271,-0.5898217,45.0,1,-0.09589283
6.4771175,4.7648783,0.42140913,26.0,9,-0.09589052
2.2456317,1.6519943,-0.5418976,29.0,2,-0.09588822
9.821638,7.222634,1.066612,38.0,10,-0.09588592
2.5943139,1.9071084,-0.50997645,46.0,3,-0.095883615
15.094178,11.091826,2.2999187,18.0,11,-0.095881306
2.770926,2.0354486,-0.42215544,26.0,4,-0.095879
33.874393,24.874126,6.6562877,8.0,12,-0.0958767
3.2492108,2.385036,-0.3526321,40.0,5,-0.0958744
25.176765,18.480639,6.0707793,10.0,13,-0.0958721
3.7664127,2.7636719,-0.24482764,28.0,6,-0.09586979
32.76578,24.033674,9.381359,17.0,14,-0.095867485
4.510565,3.3072817,-0.097628765,30.0,7,-0.09586518
24.796087,18.1746,8.237693,13.0,15,-0.09586288
1.9387368,1.4168632,-0.64342415,38.0,0,-0.09584214
5.2196755,3.8146315,0.11284725,40.0,8,-0.095839836
2.0755255,1.516275,-0.59342086,39.0,1,-0.09583753
6.4501576,4.710441,0.418583,33.0,9,-0.09583523
2.286556,1.6692197,-0.55029315,33.0,2,-0.09583293
9.743434,7.1102443,1.0552818,33.0,10,-0.09583062
2.6316073,1.9197065,-0.51592094,50.0,3,-0.09582832
15.015723,10.953678,2.2821257,30.0,11,-0.095826015
2.7555597,2.0093884,-0.4187431,25.0,4,-0.09582371
3.263956,2.3783755,-0.3533294,32.0,5,-0.0958191
25.215763,18.367434,6.06391,10.0,13,-0.0958168
3.7490692,2.7298615,-0.24304819,36.0,6,-0.0958145
32.714993,23.812508,9.341767,17.0,14,-0.09581219
4.4089065,3.2091439,-0.09518543,33.0,7,-0.095809884
24.832827,18.068607,8.228893,13.0,15,-0.09580758
1.9233418,1.3953408,-0.63669485,37.0,0,-0.09578685
5.2044826,3.7743437,0.112218976,45.0,8,-0.095784545
2.0826464,1.509802,-0.59387076,44.0,1,-0.095782235
6.34205,4.597631,0.41052327,26.0,9,-0.09577993
2.2462678,1.6278187,-0.5392263,38.0,2,-0.09577763
9.632657,6.9780087,1.0406395,33.0,10,-0.09577533
2.6270933,1.902398,-0.5137308,45.0,3,-0.09577302
14.9110565,10.793799,2.260189,24.0,11,-0.09577072
2.7146592,1.9643643,-0.41143093,28.0,4,-0.095768414
3.2012084,2.3155868,-0.34565967,27.0,5,-0.0957638
34.895252,25.232103,8.37041,20.0,13,-0.0957615
3.7245827,2.6921887,-0.24085009,45.0,6,-0.0957592
25.290289,18.27351,7.203383,7.0,14,-0.095756896
4.4589834,3.2218406,-0.09602314,29.0,7,-0.095754586
24.958393,18.027056,8.2495985,13.0,15,-0.095752284
1.9140923,1.3784575,-0.63203615,41.0,0,-0.09573155
5.1991196,3.7442112,0.111835025,45.0,8,-0.09572925
2.1034575,1.5142723,-0.5983698,43.0,1,-0.095726945
6.3483324,4.5684667,0.40989524,28.0,9,-0.095724635
2.304528,1.6578029,-0.5518197,39.0,2,-0.09572233
9.563138,6.8768735,1.0305295,33.0,10,-0.09572003
2.614143,1.879836,-0.50997645,45.0,3,-0.09571773
14.930642,10.732716,2.2577517,20.0,11,-0.09571542
2.7679076,1.988945,-0.41849938,30.0,4,-0.095713116
35.352345,25.393879,6.894068,9.0,12,-0.095710814
3.2675345,2.3462324,-0.35193488,41.0,5,-0.09570851
25.866465,18.57325,6.189844,10.0,13,-0.0957062
3.7399793,2.684482,-0.24126878,40.0,6,-0.0957039
24.766502,17.770329,7.037369,30.0,14,-0.0957016
4.4815774,3.2144134,-0.09626748,30.0,7,-0.095699295
25.168734,18.04565,8.298256,13.0,15,-0.095696986
1.9186532,1.3721021,-0.63203615,45.0,0,-0.09567625
5.2495747,3.7527864,0.11263783,49.0,8,-0.09567395
2.0928743,1.4955919,-0.59387076,47.0,1,-0.09567165
6.34474,4.5323462,0.4086392,28.0,9,-0.095669344
2.3164032,1.6547158,-0.5533461,39.0,2,-0.095667034
9.3102455,6.648293,1.0008965,33.0,10,-0.09566473
2.5740626,1.8374176,-0.5009032,31.0,3,-0.09566243
14.313581,10.213551,2.1590376,12.0,11,-0.09566013
2.7748342,1.9792705,-0.41849938,40.0,4,-0.09565782
35.460064,25.284088,6.897822,27.0,12,-0.095655516
3.259074,2.3238175,-0.35019177,31.0,5,-0.09565321
3.7574613,2.6772046,-0.24179214,33.0,6,-0.0956486
25.298212,18.018412,7.17054,10.0,14,-0.0956463
4.482996,3.1917922,-0.09605805,32.0,7,-0.095644
25.52118,18.163794,8.393501,6.0,15,-0.095641695
1.9187057,1.3620411,-0.6304832,48.0,0,-0.09562096
5.264272,3.735597,0.11267274,45.0,8,-0.09561865
2.0869565,1.4803843,-0.5907215,45.0,1,-0.09561635
6.464794,4.584107,0.4153382,34.0,9,-0.095614046
2.3109553,1.6386702,-0.5506748,38.0,2,-0.09561174
9.365904,6.6387987,1.0043827,33.0,10,-0.095609434
2.6336493,1.8661095,-0.5112279,47.0,3,-0.09560713
14.378308,10.184175,2.1634247,12.0,11,-0.09560483
2.801167,1.9833382,-0.42142424,34.0,4,-0.09560253
3.289933,2.3285422,-0.3526321,35.0,5,-0.095597915
25.473024,18.022556,6.065437,10.0,13,-0.09559561
3.7961342,2.684832,-0.24367623,33.0,6,-0.09559331
25.709433,18.176374,7.2690687,21.0,14,-0.09559101
4.5267715,3.1992052,-0.09675614,32.0,7,-0.0955887
25.565493,18.06123,8.38729,13.0,15,-0.0955864
1.9187104,1.3519973,-0.6289303,38.0,0,-0.09556566
5.277281,3.7171972,0.11267274,42.0,8,-0.09556336
2.1128259,1.487675,-0.5965702,44.0,1,-0.09556105
6.474222,4.5569153,0.4149195,33.0,9,-0.09555875
2.3278987,1.6385039,-0.5533461,39.0,2,-0.095556445
9.434648,6.638165,1.0092635,33.0,10,-0.09555414
2.6142952,1.8387214,-0.50622195,27.0,3,-0.09555183
14.050014,9.8781805,2.1088274,12.0,11,-0.09554953
2.796705,1.9655575,-0.41971806,36.0,4,-0.09554723
33.867428,23.793602,6.5555434,8.0,12,-0.09554493
3.306193,2.32277,-0.3535037,32.0,5,-0.095542625
33.016243,23.186998,7.8422503,16.0,13,-0.095540315
3.8038492,2.670416,-0.24357156,32.0,6,-0.09553801
26.23372,18.410025,7.3990903,13.0,14,-0.09553571
4.544459,3.187979,-0.096895754,29.0,7,-0.09553341
25.523993,17.898666,8.353127,6.0,15,-0.0955311
1.9297501,1.349721,-0.6310009,40.0,0,-0.09551036
5.298417,3.7044835,0.11284725,42.0,8,-0.09550806
2.1036298,1.4702439,-0.5925211,41.0,1,-0.09550576
6.4458823,4.5034056,0.41209337,33.0,9,-0.09550346
2.3319943,1.6292442,-0.5529645,34.0,2,-0.09550115
9.412025,6.5732465,1.0043827,33.0,10,-0.095498845
2.5964017,1.8126236,-0.5015289,29.0,3,-0.09549654
14.019291,9.783636,2.0990777,30.0,11,-0.09549424
2.7856405,1.9432888,-0.41703692,40.0,4,-0.09549193
34.721535,24.213085,6.704469,8.0,12,-0.09548963
3.2946694,2.29754,-0.35141194,45.0,5,-0.09548733
25.37596,17.68936,6.0127735,31.0,13,-0.095485024
3.7934842,2.6434186,-0.2423155,31.0,6,-0.095482714
26.088346,18.172432,7.3401527,21.0,14,-0.09548041
4.5046864,3.1366744,-0.095813714,28.0,7,-0.09547811
25.74329,17.918715,8.404372,20.0,15,-0.09547581
1.926515,1.3374685,-0.62841266,42.0,0,-0.09545507
5.3080316,3.6836846,0.11277745,42.0,8,-0.09545276
2.1151543,1.4673345,-0.5943207,39.0,1,-0.09545046
6.399195,4.4376297,0.40811583,19.0,9,-0.09544816
2.3118544,1.6031942,-0.5468586,38.0,2,-0.09544586
9.395615,6.513112,1.0001993,35.0,10,-0.09544355
2.5604985,1.7742959,-0.49339435,28.0,3,-0.095441245
14.037035,9.723339,2.0966403,40.0,11,-0.09543894
2.8348393,1.962936,-0.42337415,31.0,4,-0.09543664
35.05111,24.26149,6.751713,17.0,12,-0.09543433
3.2895641,2.2769527,-0.35001746,38.0,5,-0.09543203
24.995192,17.294588,5.90821,20.0,13,-0.095429726
3.824042,2.6449313,-0.24367623,36.0,6,-0.09542742
25.06645,17.33096,7.035569,7.0,14,-0.095425114
4.4152617,3.0515757,-0.09368452,24.0,7,-0.09542281
25.785017,17.814476,8.397643,20.0,15,-0.09542051
1.9184463,1.3219658,-0.6242716,41.0,0,-0.095399775
5.233576,3.6050134,0.1109275,42.0,8,-0.09539747
2.092977,1.4411547,-0.5866723,44.0,1,-0.09539516
6.2945476,4.3325977,0.4004748,34.0,9,-0.09539286
2.3077335,1.5884353,-0.5445689,34.0,2,-0.09539056
9.4084425,6.4735017,0.99915344,33.0,10,-0.095388256
2.5943449,1.7843783,-0.49871314,43.0,3,-0.09538595
13.923675,9.57306,2.0747037,18.0,11,-0.095383644
2.8416736,1.9530292,-0.42337415,34.0,4,-0.09538134
35.492146,24.38397,6.820231,17.0,12,-0.09537904
3.322124,2.2823803,-0.3526321,50.0,5,-0.09537673
25.052168,17.205015,5.907447,20.0,13,-0.09537443
3.8233726,2.6247835,-0.24304819,38.0,6,-0.095372126
25.152498,17.261,7.0427675,16.0,14,-0.09536982
4.3797145,3.004472,-0.09270719,27.0,7,-0.09536752
32.69158,22.417925,10.621416,22.0,15,-0.09536521
1.9419523,1.3286867,-0.6304832,37.0,0,-0.09539175
5.192684,3.551512,0.10981054,31.0,8,-0.09538945
2.133136,1.4584035,-0.5965702,34.0,1,-0.095387146
6.428486,4.3950906,0.40811583,34.0,9,-0.095384836
2.3745823,1.6228681,-0.55907035,37.0,2,-0.095382534
9.462762,6.4647427,1.0026397,33.0,10,-0.09538023
2.5839345,1.7646254,-0.49558446,40.0,3,-0.09537793
13.914359,9.49885,2.0686104,32.0,11,-0.09537562
2.7576237,1.882534,-0.4099685,36.0,4,-0.09537332
35.708904,24.368093,6.847137,18.0,12,-0.095371015
3.3609464,2.2926843,-0.35594404,40.0,5,-0.09536871
25.590834,17.450338,6.0207872,31.0,13,-0.0953664
3.8271039,2.6087162,-0.24273418,40.0,6,-0.0953641
32.898697,22.425146,9.19195,8.0,14,-0.0953618
4.3131146,2.9389024,-0.091101564,27.0,7,-0.0953595
32.87681,22.39342,10.658687,11.0,15,-0.09535719
1.9447494,1.3211544,-0.62996554,41.0,0,-0.09533645
5.2457905,3.5623598,0.110683165,49.0,8,-0.09533415
2.1073263,1.4305254,-0.58802205,37.0,1,-0.09533185
6.375274,4.327755,0.4038243,33.0,9,-0.095329545
2.3572068,1.5995519,-0.55372775,37.0,2,-0.095327236
9.419841,6.3897095,0.9958415,44.0,10,-0.09532493
2.6093922,1.7693498,-0.49933887,39.0,3,-0.09532263
13.962213,9.463797,2.0710478,36.0,11,-0.09532033
2.7556348,1.8678105,-0.40874982,31.0,4,-0.09531802
26.628313,18.042288,5.094445,25.0,12,-0.09531572
3.2909992,2.2290125,-0.3477514,29.0,5,-0.095313415
25.588406,17.324661,6.0066676,10.0,13,-0.09531111
3.8043077,2.5747402,-0.24074543,38.0,6,-0.0953088
25.224718,17.07199,7.03197,16.0,14,-0.0953065
4.3857756,2.9671624,-0.09242795,30.0,7,-0.0953042
24.875986,16.823328,8.046684,12.0,15,-0.0953019
1.934706,1.304975,-0.62530684,48.0,0,-0.09528116
5.2094913,3.5125256,0.10967092,47.0,8,-0.09527885
2.1136744,1.4246191,-0.58847195,28.0,1,-0.09527655
6.4085636,4.317749,0.40497568,31.0,9,-0.09527425
2.3692892,1.5957013,-0.5552542,37.0,2,-0.095271945
9.328605,6.2827563,0.98398834,24.0,10,-0.095269635
2.6119676,1.7584811,-0.49871314,39.0,3,-0.09526733
13.940821,9.381974,2.0632482,32.0,11,-0.09526503
2.773668,1.8659359,-0.410456,33.0,4,-0.09526273
26.687847,17.947027,5.0938196,25.0,12,-0.09526042
3.313642,2.227514,-0.34932023,37.0,5,-0.09525812
33.564964,22.554718,7.860568,16.0,13,-0.095255814
3.8348236,2.575925,-0.24210617,40.0,6,-0.09525351
25.301939,16.995802,7.036919,40.0,14,-0.09525121
4.4027476,2.9562929,-0.09256756,30.0,7,-0.0952489
24.839928,16.672863,8.016144,18.0,15,-0.0952466
1.9651642,1.3150663,-0.6335891,44.0,0,-0.09522586
5.2106967,3.4856243,0.109426595,49.0,8,-0.09522356
2.1237411,1.4201126,-0.5898217,34.0,1,-0.09522125
6.3479633,4.243177,0.40016076,24.0,9,-0.09521895
2.3718574,1.5848247,-0.554491,27.0,2,-0.09521665
9.296904,6.211993,0.9782361,22.0,10,-0.095214345
2.6183949,1.7488967,-0.49871314,41.0,3,-0.095212035
13.777,9.1985445,2.0339994,22.0,11,-0.09520973
2.780488,1.8557581,-0.410456,28.0,4,-0.09520743
35.83065,23.905138,6.822108,8.0,12,-0.09520513
3.3615654,2.241886,-0.3535037,37.0,5,-0.095202826
33.444843,22.29651,7.813247,16.0,13,-0.09520052
3.839255,2.5585272,-0.24179214,41.0,6,-0.095198214
25.198666,16.792702,6.991029,30.0,14,-0.09519591
4.401903,2.9323766,-0.092323236,31.0,7,-0.09519361
25.24336,16.809784,8.126401,12.0,15,-0.0951913
1.9603139,1.3014442,-0.6304832,43.0,0,-0.095170565
5.2251024,3.4676094,0.109461494,40.0,8,-0.09516826
2.1045742,1.3961583,-0.5830731,38.0,1,-0.09516596
6.257885,4.1514325,0.39356643,28.0,9,-0.09516365
2.354468,1.5613458,-0.5491483,33.0,2,-0.09516135
9.219968,6.111828,0.9677773,33.0,10,-0.09515905
2.613262,1.7316482,-0.49652308,34.0,3,-0.095156744
13.6236105,9.0241165,2.006457,16.0,11,-0.09515444
2.800188,1.8548111,-0.41240588,26.0,4,-0.09515213
35.910587,23.77773,6.821482,26.0,12,-0.09514983
3.2962685,2.1817517,-0.345834,34.0,5,-0.09514753
27.542974,18.223398,6.419578,11.0,13,-0.095145226
3.8381655,2.538502,-0.24116412,38.0,6,-0.095142916
25.148218,16.632633,6.9608855,33.0,14,-0.09514061
4.378751,2.8949354,-0.09162514,33.0,7,-0.09513831
25.477552,16.837671,8.182823,19.0,15,-0.09513601
1.9791356,1.3045052,-0.63514197,40.0,0,-0.09511527
5.221545,3.4403598,0.10914735,42.0,8,-0.095112965
2.10431,1.3859564,-0.58172345,48.0,1,-0.09511066
6.4167304,4.226235,0.4026729,27.0,9,-0.09510836
2.3366756,1.5384157,-0.54380566,42.0,2,-0.09510606
9.263487,6.096552,0.97021776,24.0,10,-0.09510375
2.6371424,1.7349156,-0.4999646,43.0,3,-0.095101446
13.633555,8.965804,2.0035322,42.0,11,-0.09509914
2.7432969,1.8040681,-0.40314382,40.0,4,-0.09509684
3.3234653,2.1839392,-0.34792572,37.0,5,-0.09509223
27.704988,18.198797,6.4432383,11.0,13,-0.09508993
3.8348763,2.5180852,-0.24043141,40.0,6,-0.095087625
25.659348,16.848633,7.0868583,12.0,14,-0.095085315
4.4535236,2.923194,-0.09298642,30.0,7,-0.09508301
25.948355,17.025463,8.315856,6.0,15,-0.09508071
1.9834509,1.2979344,-0.63514197,38.0,0,-0.095059976
5.222883,3.4164586,0.10893792,42.0,8,-0.095057674
2.1284668,1.3917677,-0.58712226,41.0,1,-0.095055364
6.165625,4.0300646,0.38603005,21.0,9,-0.09505306
2.3466947,1.5338804,-0.54495054,35.0,2,-0.09505076
9.101848,5.9470134,0.9512178,27.0,10,-0.09504846
2.627997,1.7164384,-0.4971488,36.0,3,-0.09504615
13.6748495,8.928137,2.0052383,32.0,11,-0.095043845
2.7828255,1.8161792,-0.4080186,33.0,4,-0.09504154
34.11939,22.259113,6.4522967,7.0,12,-0.09503924
3.3857563,2.20883,-0.353678,42.0,5,-0.09503693
26.331215,17.171661,6.110468,10.0,13,-0.09503463
3.7980301,2.4759061,-0.23760527,31.0,6,-0.09503233
25.79801,16.811089,7.108903,20.0,14,-0.095030025
4.374895,2.8497844,-0.09113646,31.0,7,-0.095027715
25.915354,16.874691,8.286351,26.0,15,-0.09502541
1.9928303,1.2941588,-0.63669485,42.0,0,-0.09500468
5.2699995,3.421073,0.10967092,45.0,8,-0.095002376
2.1594665,1.4013038,-0.5943207,41.0,1,-0.09500007
6.360623,4.1259027,0.39733464,31.0,9,-0.09499776
2.3372111,1.5160632,-0.54151595,39.0,2,-0.09499546
9.145953,5.930383,0.9536581,33.0,10,-0.09499316
2.6389441,1.7104796,-0.4980874,39.0,3,-0.09499086
13.675947,8.860916,2.0008512,46.0,11,-0.09498855
2.790815,1.8075325,-0.40826234,31.0,4,-0.094986245
34.150433,22.10984,6.4435363,15.0,12,-0.09498394
3.3315632,2.156937,-0.34722847,29.0,5,-0.09498164
26.71075,17.286572,6.1845016,10.0,13,-0.09497933
3.8351583,2.4810753,-0.2393847,32.0,6,-0.09497703
25.668339,16.599257,7.0571647,28.0,14,-0.09497473
4.310925,2.7867286,-0.08960066,27.0,7,-0.094972424
26.034138,16.822912,8.305503,6.0,15,-0.09497012
1.9843445,1.2788231,-0.63255376,44.0,0,-0.09494938
5.246607,3.3799126,0.10893792,40.0,8,-0.09494708
2.1561532,1.3884813,-0.5920712,44.0,1,-0.094944775
6.2994123,4.0550284,0.39262438,30.0,9,-0.09494247
2.3012187,1.4813299,-0.5319755,35.0,2,-0.09494016
9.112985,5.8639193,0.9480801,27.0,10,-0.09493786
2.603365,1.6745411,-0.49026567,36.0,3,-0.09493556
13.643342,8.77233,1.991589,32.0,11,-0.09493326
2.778738,1.785974,-0.4055812,29.0,4,-0.09493095
3.2975361,2.1177943,-0.34287068,27.0,5,-0.09492634
26.54131,17.045767,6.131457,43.0,13,-0.09492404
3.8908548,2.4978857,-0.2423155,35.0,6,-0.09492174
25.644125,16.456924,7.0346694,21.0,14,-0.09491943
4.3054786,2.7619448,-0.08928651,22.0,7,-0.094917126
33.293602,21.349516,10.597606,11.0,15,-0.094914824
2.0004127,1.2788249,-0.63617724,40.0,0,-0.09489409
5.182557,3.3131082,0.10736721,31.0,8,-0.09489178
2.154418,1.3767494,-0.59027153,44.0,1,-0.09488948
6.2630334,4.000761,0.38948423,30.0,9,-0.094887175
2.3562737,1.5045828,-0.543424,37.0,2,-0.09488487
9.112581,5.816545,0.9458141,33.0,10,-0.09488256
2.626137,1.6756139,-0.49339435,38.0,3,-0.09488026
13.683918,8.731061,1.9930513,32.0,11,-0.09487796
2.8251235,1.8018821,-0.41143093,29.0,4,-0.094875656
3.2461028,2.0687919,-0.3367698,34.0,5,-0.094871044
26.678122,16.995836,6.1486297,10.0,13,-0.09486874
3.8612363,2.4589338,-0.23990804,38.0,6,-0.09486644
33.259712,21.172453,9.102419,28.0,14,-0.09486414
4.367387,2.7801893,-0.09036856,19.0,7,-0.09486183
32.839855,20.897127,10.42989,21.0,15,-0.094859526
2.0064952,1.2728695,-0.63669485,42.0,0,-0.09483879
5.235195,3.3197937,0.10820492,47.0,8,-0.09483649
2.1594498,1.3688433,-0.59027153,59.0,1,-0.09483418
6.2196064,3.9425166,0.38592538,25.0,9,-0.09483188
2.31176,1.4648249,-0.5319755,37.0,2,-0.094829574
9.015011,5.7100716,0.93361235,22.0,10,-0.09482727
2.6152809,1.6558691,-0.49026567,38.0,3,-0.09482497
13.564869,8.585301,1.971115,36.0,11,-0.09482266
2.8515239,1.8047496,-0.41435578,28.0,4,-0.09482036
43.728413,27.66533,8.195602,13.0,12,-0.094818056
3.249936,2.055319,-0.33642116,37.0,5,-0.09481575
3.841094,2.4273016,-0.23812862,32.0,6,-0.09481114
33.11393,20.925678,9.043483,32.0,14,-0.09480884
4.3855176,2.7702682,-0.090543084,27.0,7,-0.09480654
25.591429,16.159487,8.109837,44.0,15,-0.09480423
1.9943576,1.2559147,-0.6315185,43.0,0,-0.09478349
5.2935596,3.3322442,0.10918226,42.0,8,-0.09478119
2.1672764,1.36375,-0.5911713,50.0,1,-0.09477889
6.254623,3.9356964,0.38728613,19.0,9,-0.094776586
2.363136,1.4864198,-0.54266083,38.0,2,-0.094774276
9.060884,5.697111,0.93640125,33.0,10,-0.094771974
2.624103,1.6492891,-0.49089143,37.0,3,-0.09476967
13.509218,8.487471,1.9589281,30.0,11,-0.09476737
2.9028766,1.8237976,-0.42093676,34.0,4,-0.09476506
34.866905,21.897411,6.5211277,7.0,12,-0.09476276
3.2921708,2.0667758,-0.3400817,27.0,5,-0.094760455
3.8474307,2.4134881,-0.23802395,36.0,6,-0.09475584
33.12537,20.7795,9.027736,36.0,14,-0.09475354
4.228652,2.6515996,-0.08712241,22.0,7,-0.09475124
33.0599,20.722376,10.454737,21.0,15,-0.09474894
1.9772161,1.2359817,-0.6247892,39.0,0,-0.0947282
5.2604895,3.287119,0.108274736,36.0,8,-0.09472589
2.1271603,1.3286827,-0.579024,52.0,1,-0.09472359
6.1209316,3.8218126,0.37817967,27.0,9,-0.09472129
2.32642,1.4525799,-0.5331204,39.0,2,-0.094718985
9.001977,5.618508,0.92838293,22.0,10,-0.094716676
2.5826304,1.6113024,-0.4821311,38.0,3,-0.09471437
13.5086565,8.424764,1.9547845,34.0,11,-0.09471207
2.853635,1.7789971,-0.41289338,28.0,4,-0.09470977
3.2976735,2.0542188,-0.33990738,29.0,5,-0.09470516
3.7825093,2.3553212,-0.23352307,32.0,6,-0.09470055
33.28869,20.72039,9.05248,32.0,14,-0.09469824
4.297307,2.673798,-0.08834408,31.0,7,-0.09469594
33.20422,20.651733,10.477513,10.0,15,-0.09469364
1.9965097,1.237889,-0.62944794,42.0,0,-0.0946729
5.2447386,3.251877,0.107716255,45.0,8,-0.0946706
2.138411,1.3253552,-0.5808236,47.0,1,-0.09466829
6.458521,4.00133,0.398172,28.0,9,-0.09466599
2.3167062,1.4347408,-0.5296858,34.0,2,-0.09466369
8.980157,5.5592604,0.9240251,24.0,10,-0.094661385
2.551565,1.5789555,-0.47524795,33.0,3,-0.094659075
13.564992,8.394268,1.9586842,40.0,11,-0.09465677
2.9070973,1.7982658,-0.41971806,36.0,4,-0.09465447
59.693287,36.91054,11.115922,43.0,12,-0.09465217
3.2099166,1.9840324,-0.33014596,29.0,5,-0.09464986
35.631584,22.015121,8.1414385,18.0,13,-0.09464756
3.8505907,2.378175,-0.23718657,31.0,6,-0.094645254
33.553448,20.714935,9.103769,36.0,14,-0.09464295
4.3049135,2.6577299,-0.08830918,30.0,7,-0.09464065
26.131304,16.12642,8.227858,13.0,15,-0.09463834
1.9942371,1.2268627,-0.6273774,44.0,0,-0.094617605
5.2975035,3.2577713,0.10855397,51.0,8,-0.0946153
2.1432543,1.3175089,-0.5808236,48.0,1,-0.094613
6.4996696,3.9955003,0.39984673,28.0,9,-0.09461069
2.3467913,1.4420623,-0.5354101,42.0,2,-0.09460839
8.72618,5.3599873,0.89596105,22.0,10,-0.09460609
2.5907276,1.590713,-0.48150533,36.0,3,-0.094603784
13.612585,8.35488,1.9611217,38.0,11,-0.094601475
2.9559696,1.8135501,-0.42581153,39.0,4,-0.09459917
35.643196,21.867857,6.623123,8.0,12,-0.09459687
3.247393,1.9915668,-0.33328354,30.0,5,-0.09459457
35.70822,21.8906,8.1414385,18.0,13,-0.094592266
3.84184,2.3542829,-0.23613985,30.0,6,-0.094589956
33.602272,20.583458,9.09747,32.0,14,-0.094587654
4.3516765,2.6656694,-0.08907708,24.0,7,-0.09458535
25.922184,15.872692,8.144518,19.0,15,-0.09458305
2.0034544,1.222913,-0.6289303,47.0,0,-0.09456231
5.31852,3.2464364,0.1087634,51.0,8,-0.094560005
2.094379,1.2779132,-0.56642675,47.0,1,-0.0945577
6.4385524,3.9270265,0.3952412,24.0,9,-0.0945554
2.3249905,1.4175091,-0.5293042,31.0,2,-0.0945531
8.704002,5.304611,0.8917775,33.0,10,-0.09455079
2.5268297,1.5399638,-0.4686777,36.0,3,-0.094548486
13.479162,8.211582,1.9379665,30.0,11,-0.094546184
2.9161904,1.7758603,-0.41923055,29.0,4,-0.09454388
35.533703,21.630331,6.588708,16.0,12,-0.09454157
3.3360243,2.0299308,-0.3416505,29.0,5,-0.09453927
33.939083,20.651527,7.7224216,15.0,13,-0.09453697
3.7762516,2.2968986,-0.23163895,35.0,6,-0.094534665
33.638714,20.452671,9.0889225,28.0,14,-0.094532356
4.2772226,2.5995712,-0.087366745,27.0,7,-0.09453005
25.91965,15.746997,8.126401,6.0,15,-0.09452775
2.0240207,1.2262744,-0.6341067,43.0,0,-0.094507016
5.314423,3.2185314,0.10844925,54.0,8,-0.094504714
2.1071625,1.2756402,-0.5686763,46.0,1,-0.094502404
6.388323,3.8673816,0.3913683,25.0,9,-0.0945001
2.3296783,1.4097918,-0.5293042,30.0,2,-0.0944978
8.765869,5.3025327,0.8963096,22.0,10,-0.0944955
2.5372615,1.5341998,-0.46961632,33.0,3,-0.09449319
13.502649,8.161398,1.9372352,26.0,11,-0.094490886
2.8951857,1.7492471,-0.41533077,33.0,4,-0.09448858
34.976276,21.132376,6.47232,15.0,12,-0.09448628
3.2233543,1.9467541,-0.3294487,29.0,5,-0.09448397
3.7312346,2.2517152,-0.22839414,33.0,6,-0.09447937
33.75663,20.3633,9.10152,28.0,14,-0.094477065
4.278971,2.5812404,-0.08722713,30.0,7,-0.094474755
33.95233,20.473274,10.6234865,11.0,15,-0.09447245
1.9868957,1.1943196,-0.62116575,40.0,0,-0.09445172
5.338779,3.209131,0.1087285,54.0,8,-0.094449416
2.1214035,1.274668,-0.57137567,45.0,1,-0.09444711
6.311037,3.7905593,0.3858207,33.0,9,-0.094444804
2.3042874,1.3834614,-0.52243507,30.0,2,-0.0944425
8.606657,5.1652713,0.8781812,22.0,10,-0.0944402
2.5609663,1.5369598,-0.4730579,30.0,3,-0.0944379
13.3543005,8.0114,1.9121301,28.0,11,-0.09443559
2.9043758,1.7416778,-0.41581824,36.0,4,-0.094433285
34.79908,20.859837,6.426016,22.0,12,-0.09443098
3.2779846,1.9641639,-0.33432943,33.0,5,-0.09442868
34.24392,20.51891,7.759821,15.0,13,-0.09442637
3.77295,2.259854,-0.23048759,38.0,6,-0.09442407
33.69857,20.176176,9.067777,32.0,14,-0.09442177
4.320558,2.585799,-0.08789032,31.0,7,-0.094419464
33.506344,20.0452,10.461984,10.0,15,-0.094417155
2.0007994,1.1936634,-0.6242716,38.0,0,-0.09439642
5.341362,3.1853528,0.10855397,63.0,8,-0.09439412
2.1291873,1.2692513,-0.57227546,44.0,1,-0.094391815
6.516394,3.883012,0.39754397,34.0,9,-0.09438951
2.2970564,1.3687782,-0.51976377,34.0,2,-0.0943872
8.647705,5.1509748,0.88062155,33.0,10,-0.0943849
2.5442505,1.5148739,-0.4689906,26.0,3,-0.0943826
13.448713,8.004328,1.921636,34.0,11,-0.0943803
2.910438,1.7315283,-0.41581824,32.0,4,-0.09437799
34.528717,20.534286,6.3628163,29.0,12,-0.094375685
3.2656417,1.9420826,-0.332412,27.0,5,-0.09437338
3.804854,2.2609534,-0.23195298,33.0,6,-0.09436877
33.596214,19.955921,9.021437,28.0,14,-0.09436647
4.3123612,2.5604954,-0.087541275,31.0,7,-0.094364166
25.891037,15.36686,8.06739,12.0,15,-0.094361864
2.001629,1.1847035,-0.6232363,40.0,0,-0.09434113
5.297373,3.134109,0.107437015,54.0,8,-0.09433882
2.1604433,1.2776825,-0.5794739,44.0,1,-0.09433652
6.352822,3.7555523,0.38676277,34.0,9,-0.094334215
2.384632,1.409706,-0.538463,31.0,2,-0.09433191
8.609027,5.0873094,0.8748693,46.0,10,-0.0943296
2.5512242,1.5069875,-0.46930346,28.0,3,-0.0943273
13.288545,7.8463078,1.8948246,34.0,11,-0.094325
2.9403975,1.7354851,-0.41923055,38.0,4,-0.0943227
34.698864,20.47184,6.3809624,14.0,12,-0.09432039
3.2535255,1.9195342,-0.33049458,34.0,5,-0.094318084
3.7972374,2.2385302,-0.23101093,35.0,6,-0.09431348
33.729473,19.876116,9.038533,32.0,14,-0.09431118
4.3333344,2.55253,-0.0877856,30.0,7,-0.09430887
33.63881,19.806873,10.459913,21.0,15,-0.094306566
2.022411,1.1874913,-0.62841266,40.0,0,-0.09428583
5.358294,3.1449516,0.10844925,58.0,8,-0.09428353
2.1262314,1.247452,-0.5691262,37.0,1,-0.09428122
6.3503857,3.724262,0.3858207,36.0,9,-0.09427892
2.386151,1.3993876,-0.53769976,33.0,2,-0.094276614
8.667983,5.0814123,0.8790528,44.0,10,-0.09427431
2.5411303,1.4890838,-0.46648762,33.0,3,-0.094272
13.225068,7.7467012,1.8819065,26.0,11,-0.0942697
2.9207418,1.7101657,-0.4155745,34.0,4,-0.0942674
34.765003,20.347591,6.380024,14.0,12,-0.094265096
3.263978,1.9096096,-0.3308432,34.0,5,-0.09426279
34.504345,20.18697,7.770506,15.0,13,-0.094260484
3.7998555,2.2222378,-0.2306969,28.0,6,-0.09425818
34.12167,19.947077,9.124915,4.0,14,-0.09425588
4.3871074,2.5636206,-0.08869313,33.0,7,-0.09425358
33.57763,19.613338,10.419538,20.0,15,-0.09425127
2.0083852,1.1693785,-0.62271863,41.0,0,-0.09423053
5.348501,3.114155,0.10803039,60.0,8,-0.09422823
2.1659417,1.2606082,-0.57857406,47.0,1,-0.09422593
6.3098316,3.6709352,0.38257587,36.0,9,-0.094223626
2.4438758,1.4212278,-0.5495299,25.0,2,-0.09422132
8.73478,5.0776424,0.8839335,35.0,10,-0.094219014
2.544863,1.4787683,-0.46617478,39.0,3,-0.09421671
13.073529,7.596763,1.8565578,20.0,11,-0.09421441
2.916395,1.6939771,-0.41411206,40.0,4,-0.0942121
34.46682,20.01188,6.312444,28.0,12,-0.0942098
3.293026,1.911205,-0.33310926,38.0,5,-0.094207495
34.598484,20.072182,7.775085,15.0,13,-0.09420519
3.776876,2.1902595,-0.22881283,31.0,6,-0.09420288
33.597717,19.47592,8.96565,15.0,14,-0.09420058
4.4254403,2.5653386,-0.08928651,34.0,7,-0.09419828
33.448654,19.381712,10.358457,20.0,15,-0.09419598
2.0191464,1.1662252,-0.6247892,44.0,0,-0.09417524
5.3650756,3.0975294,0.108135104,56.0,8,-0.09417293
2.1621082,1.2477912,-0.5763246,41.0,1,-0.09417063
6.2921023,3.629821,0.38069177,34.0,9,-0.09416833
2.4726298,1.4264235,-0.55487263,39.0,2,-0.094166026
8.733465,5.0361757,0.8820161,24.0,10,-0.094163716
2.5568545,1.4738224,-0.46742624,36.0,3,-0.09416141
13.018723,7.501227,1.8448583,36.0,11,-0.09415911
2.938065,1.6921939,-0.41630572,41.0,4,-0.09415681
34.558773,19.896252,6.3158855,28.0,12,-0.0941545
3.3120964,1.9060799,-0.33432943,37.0,5,-0.0941522
34.644512,19.937586,7.7697425,15.0,13,-0.094149895
3.777573,2.1730797,-0.22839414,31.0,6,-0.09414759
33.62327,19.334229,8.954402,31.0,14,-0.09414528
4.3949375,2.5261824,-0.0884837,39.0,7,-0.09414298
33.928185,19.493807,10.48476,10.0,15,-0.09414068
2.0368183,1.166498,-0.6289303,43.0,0,-0.09411994
5.3775907,3.079778,0.10817002,60.0,8,-0.09411764
2.166451,1.2402359,-0.5763246,39.0,1,-0.09411533
6.2561975,3.5800583,0.37776098,36.0,9,-0.09411303
2.481249,1.4193015,-0.5556358,35.0,2,-0.09411073
8.705166,4.9774275,0.87730974,27.0,10,-0.094108425
2.5690994,1.4683613,-0.4686777,36.0,3,-0.094106115
13.017254,7.4399734,1.8409585,36.0,11,-0.09410381
2.9439538,1.6819284,-0.41630572,38.0,4,-0.09410151
34.672607,19.800976,6.3240204,21.0,12,-0.09409921
3.3377635,1.9053712,-0.33624685,43.0,5,-0.0940969
34.693478,19.79686,7.7644,15.0,13,-0.0940946
3.787248,2.1602082,-0.2284988,31.0,6,-0.094092295
33.44504,19.068981,8.888266,15.0,14,-0.09408999
4.3759346,2.4949772,-0.087925225,36.0,7,-0.09408769
33.831535,19.28152,10.4340315,21.0,15,-0.09408538
2.0436292,1.1623591,-0.62996554,35.0,0,-0.094068766
5.364641,3.0500185,0.107716255,51.0,8,-0.09406646
2.1144261,1.2016497,-0.56147784,34.0,1,-0.09406416
6.246574,3.548549,0.3765049,34.0,9,-0.09406185
2.4410667,1.3867193,-0.5457138,37.0,2,-0.09405955
8.742417,4.9643683,0.87957567,33.0,10,-0.09405725
2.5889063,1.4695089,-0.47149354,33.0,3,-0.094054945
12.9991255,7.3755336,1.8351088,32.0,11,-0.094052635
2.9613104,1.6795257,-0.41801187,34.0,4,-0.09405033
34.47,19.541925,6.2758384,14.0,12,-0.09404803
3.3211982,1.8821064,-0.3339808,34.0,5,-0.09404573
3.7536707,2.126321,-0.22609136,28.0,6,-0.09404112
33.4099,18.917822,8.863972,27.0,14,-0.094038814
4.397673,2.4890985,-0.088204466,36.0,7,-0.09403651
33.891945,19.17513,10.4340315,21.0,15,-0.0940342
2.032731,1.146321,-0.62530684,38.0,0,-0.09401347
5.366545,3.0263636,0.107541725,58.0,8,-0.094011165
2.1135151,1.1913903,-0.5601281,41.0,1,-0.09400886
6.161481,3.471815,0.3706433,32.0,9,-0.09400656
2.3931046,1.347896,-0.5338836,33.0,2,-0.09400425
8.659861,4.8755975,0.8694657,33.0,10,-0.09400195
2.5994396,1.462916,-0.47243217,51.0,3,-0.09399965
12.820659,7.2152267,1.8063475,44.0,11,-0.093997344
2.8996801,1.6312213,-0.4085061,32.0,4,-0.093995035
34.46742,19.38178,6.263011,21.0,12,-0.09399273
3.331222,1.8724536,-0.33432943,29.0,5,-0.09399043
3.7475083,2.1047237,-0.22525398,28.0,6,-0.09398582
33.34308,18.718914,8.827979,3.0,14,-0.093983516
4.3906426,2.464921,-0.08789032,36.0,7,-0.093981214
33.946873,19.050116,10.4304085,21.0,15,-0.09397891
2.0384066,1.140161,-0.6258245,42.0,0,-0.09395818
5.3618917,2.9978921,0.10722758,49.0,8,-0.09395587
2.1740038,1.2150098,-0.5749749,44.0,1,-0.093953565
6.3066792,3.52324,0.37859833,30.0,9,-0.09395126
2.43893,1.3625135,-0.5430424,44.0,2,-0.09394896
8.678565,4.8463125,0.86964,27.0,10,-0.09394665
2.6114295,1.4576851,-0.47368363,41.0,3,-0.09394435
12.8868885,7.1904383,1.8119535,42.0,11,-0.093942046
2.8900375,1.6118779,-0.4063124,24.0,4,-0.093939744
34.572723,19.274565,6.269268,21.0,12,-0.093937434
3.334257,1.8588743,-0.3339808,37.0,5,-0.09393513
34.22328,19.071918,7.615569,14.0,13,-0.09393283
3.7757704,2.103292,-0.22651003,27.0,6,-0.09393053
40.140247,22.350962,10.606892,5.0,14,-0.093928225
4.2983046,2.3924067,-0.08586584,27.0,7,-0.093925916
34.02829,18.932114,10.4340315,21.0,15,-0.09392361
2.0187232,1.1199187,-0.61857754,41.0,0,-0.09390288
5.367079,2.976247,0.107122876,58.0,8,-0.093900576
2.2020936,1.22064,-0.5812735,62.0,1,-0.09389827
6.41153,3.5525088,0.38414595,33.0,9,-0.093895964
2.4608433,1.3635073,-0.5468586,39.0,2,-0.09389366
8.522879,4.720424,0.8523832,33.0,10,-0.09389136
2.6545227,1.469609,-0.4805667,51.0,3,-0.09388905
12.990067,7.1886663,1.8229219,46.0,11,-0.09388675
2.93386,1.6229212,-0.41167468,24.0,4,-0.093884446
34.769455,19.225449,6.2927337,7.0,12,-0.09388214
3.3511872,1.853008,-0.33502665,43.0,5,-0.09387984
3.7551165,2.0746481,-0.22483528,25.0,6,-0.09387523
33.49342,18.496984,8.833378,15.0,14,-0.09387293
4.2873726,2.3667564,-0.08548189,28.0,7,-0.093870625
34.15505,18.846842,10.452666,10.0,15,-0.093868315
2.0023098,1.1016896,-0.6123659,41.0,0,-0.09384758
5.3844438,2.961347,0.10726249,56.0,8,-0.09384528
2.1841402,1.2007427,-0.5754248,47.0,1,-0.093842976
6.344515,3.487931,0.37943572,30.0,9,-0.093840666
2.4552648,1.3492353,-0.5445689,30.0,2,-0.093838364
8.509618,4.674335,0.84941983,33.0,10,-0.09383606
2.649246,1.4546314,-0.47868952,45.0,3,-0.09383376
12.940252,7.1022053,1.812441,50.0,11,-0.09383146
2.890777,1.5859349,-0.40485,26.0,4,-0.09382915
3.3122134,1.8163929,-0.33049458,28.0,5,-0.09382454
34.186882,18.740047,7.578171,14.0,13,-0.09382224
3.7535782,2.056728,-0.22431193,27.0,6,-0.09381993
35.137035,19.244965,9.249087,4.0,14,-0.09381763
4.291688,2.3506076,-0.08541208,28.0,7,-0.09381533
34.254642,18.753876,10.464054,21.0,15,-0.093813024
2.0502346,1.118752,-0.6258245,42.0,0,-0.09379228
5.325776,2.9061177,0.105901204,40.0,8,-0.09378998
2.191532,1.1953589,-0.5763246,67.0,1,-0.09378768
6.2812495,3.4246502,0.37493482,35.0,9,-0.093785375
2.408244,1.3124713,-0.5331204,41.0,2,-0.09378307
8.497889,4.629355,0.8466309,38.0,10,-0.09378076
2.6453824,1.4411125,-0.4771252,38.0,3,-0.09377846
12.888766,7.018436,1.8019602,46.0,11,-0.09377616
2.8280227,1.539327,-0.3953442,28.0,4,-0.09377386
3.330786,1.8114824,-0.33171475,29.0,5,-0.093769245
40.792294,22.18531,9.026029,25.0,13,-0.09376694
3.7217746,2.0232818,-0.22200914,23.0,6,-0.09376464
33.25554,18.071331,8.737999,26.0,14,-0.09376233
4.3227115,2.3480196,-0.08586584,28.0,7,-0.09376003
34.34367,18.647085,10.471301,10.0,15,-0.093757726
2.064126,1.1174659,-0.6289303,41.0,0,-0.09373699
5.3587494,2.899886,0.10635497,49.0,8,-0.09373469
2.176837,1.1775023,-0.57137567,50.0,1,-0.09373238
6.4407444,3.4824972,0.38372725,39.0,9,-0.09373008
2.4022207,1.2988758,-0.5308306,32.0,2,-0.093727775
8.535978,4.613466,0.8488969,33.0,10,-0.09372547
2.599996,1.40464,-0.46805197,35.0,3,-0.09372316
12.836335,6.931897,1.7912358,36.0,11,-0.09372086
2.8386183,1.5322769,-0.3960754,35.0,4,-0.09371856
3.3472958,1.8061029,-0.3327606,28.0,5,-0.09371395
3.7762804,2.0358713,-0.22483528,24.0,6,-0.09370934
32.908417,17.734179,8.630472,29.0,14,-0.09370704
4.327361,2.3310184,-0.085796036,28.0,7,-0.09370473
2.0509934,1.1011165,-0.6237539,34.0,0,-0.09368169
5.3071694,2.848066,0.105133295,45.0,8,-0.09367939
2.1998236,1.18003,-0.5763246,51.0,1,-0.09367709
6.488065,3.4788713,0.3858207,36.0,9,-0.09367478
2.4465349,1.3118211,-0.5396079,37.0,2,-0.09367248
8.585397,4.6015224,0.85220885,44.0,10,-0.093670174
2.5961773,1.3908906,-0.46648762,33.0,3,-0.09366787
12.711706,6.8073936,1.770518,42.0,11,-0.09366556
2.8614514,1.5317265,-0.39851278,26.0,4,-0.09366326
32.474377,17.37613,5.8334417,6.0,12,-0.09366096
3.2762845,1.753048,-0.32509091,29.0,5,-0.093658656
41.77716,22.344433,9.209207,26.0,13,-0.093656346
3.7410922,2.0000765,-0.22232316,27.0,6,-0.093654044
33.11622,17.697262,8.668715,25.0,14,-0.09365174
4.3354707,2.3158998,-0.085796036,31.0,7,-0.09364944
33.631165,17.95738,10.215588,9.0,15,-0.09364714
2.0411828,1.0866871,-0.6196128,37.0,0,-0.093626395
5.315313,2.828585,0.1050984,45.0,8,-0.09362409
2.2125316,1.1769203,-0.57857406,63.0,1,-0.09362179
6.3485107,3.3755622,0.37681893,39.0,9,-0.09361949
2.3488257,1.2488925,-0.5170924,30.0,2,-0.09361718
8.599647,4.5705924,0.8520345,49.0,10,-0.093614876
2.6132271,1.388309,-0.4686777,42.0,3,-0.093612574
12.824807,6.8104587,1.7829487,44.0,11,-0.09361027
2.8808072,1.5291752,-0.40046272,36.0,4,-0.09360796
30.57,16.220171,5.4811516,5.0,12,-0.09360566
3.2894228,1.7453386,-0.32578817,29.0,5,-0.09360336
41.60168,22.064154,9.15349,26.0,13,-0.093601055
3.8398118,2.0356505,-0.22776611,37.0,6,-0.09359875
33.103745,17.542328,8.649367,10.0,14,-0.09359644
4.331159,2.2941988,-0.0855517,33.0,7,-0.09359414
2.0517972,1.0831635,-0.6216834,42.0,0,-0.093571104
5.213735,2.7512178,0.10289939,36.0,8,-0.093568794
2.2114556,1.166462,-0.57722443,58.0,1,-0.09356649
6.3549542,3.3505883,0.3765049,37.0,9,-0.09356419
2.3271208,1.2269521,-0.5113681,25.0,2,-0.09356189
8.624362,4.5451884,0.85290605,44.0,10,-0.09355958
2.6372824,1.3893055,-0.47211927,37.0,3,-0.093557276
12.692175,6.6833367,1.7612559,42.0,11,-0.09355497
2.8703182,1.5107877,-0.39826906,25.0,4,-0.09355267
30.64741,16.12439,5.4849057,11.0,12,-0.09355037
3.256704,1.7134358,-0.32195333,34.0,5,-0.09354806
3.907001,2.0538328,-0.23132494,38.0,6,-0.093543455
32.997437,17.338747,8.605727,21.0,14,-0.09354115
4.3090444,2.2632594,-0.084958315,34.0,7,-0.09353884
33.5744,17.626966,10.160719,19.0,15,-0.09353654
2.094931,1.0966012,-0.6335891,38.0,0,-0.093515806
5.230395,2.7367082,0.10303901,29.0,8,-0.0935135
2.2258744,1.1641546,-0.5799238,48.0,1,-0.093511194
6.328863,3.310059,0.3743068,30.0,9,-0.09350889
2.345308,1.2260984,-0.51442105,29.0,2,-0.09350659
8.613688,4.501212,0.85029143,33.0,10,-0.09350429
2.6105993,1.3636295,-0.46648762,30.0,3,-0.093501985
12.787575,6.6766577,1.7712492,50.0,11,-0.093499675
2.9263434,1.5279045,-0.40533748,26.0,4,-0.09349737
30.670946,16.007126,5.4795866,11.0,12,-0.09349507
3.2803297,1.7112732,-0.32369643,36.0,5,-0.09349277
41.051422,21.406452,8.999316,25.0,13,-0.09349046
3.8007965,1.9810991,-0.22462595,25.0,6,-0.09348816
33.092777,17.249035,8.615625,25.0,14,-0.093485855
4.367955,2.275754,-0.08597055,31.0,7,-0.09348355
33.769753,17.58691,10.20213,19.0,15,-0.09348124
2.0659804,1.0727332,-0.6237539,37.0,0,-0.09346051
5.2447653,2.7221134,0.10314372,46.0,8,-0.093458205
2.2055058,1.1442027,-0.5736252,48.0,1,-0.0934559
6.3220773,3.2798543,0.37326008,37.0,9,-0.0934536
2.3946755,1.2418123,-0.52434313,29.0,2,-0.09345129
8.605572,4.4607058,0.8480254,35.0,10,-0.09344899
2.620369,1.3576905,-0.46742624,46.0,3,-0.09344669
12.807881,6.633306,1.7710054,48.0,11,-0.093444385
2.880275,1.4917178,-0.39826906,35.0,4,-0.093442075
30.241438,15.655593,5.393548,5.0,12,-0.09343977
3.2877562,1.7013006,-0.32387072,43.0,5,-0.09343747
3.8304093,1.98041,-0.22598669,22.0,6,-0.09343286
33.43369,17.285988,8.689409,25.0,14,-0.09343056
4.348831,2.2474844,-0.08544698,34.0,7,-0.093428254
34.124813,17.628223,10.291681,20.0,15,-0.09342595
2.0523517,1.0570312,-0.61857754,35.0,0,-0.09340522
5.2804313,2.7184367,0.10366729,42.0,8,-0.09340291
2.2127533,1.1386664,-0.574525,38.0,1,-0.093400605
6.358353,3.270554,0.3747255,39.0,9,-0.0933983
2.4354432,1.252722,-0.53235716,37.0,2,-0.093396
8.606141,4.4248576,0.8466309,44.0,10,-0.09339369
2.647697,1.3607323,-0.47149354,50.0,3,-0.09339139
12.741523,6.5454397,1.7588185,52.0,11,-0.09338909
2.8165953,1.4462901,-0.38876322,44.0,4,-0.093386784
30.120157,15.459739,5.362261,11.0,12,-0.093384475
3.3146503,1.7013068,-0.32596248,39.0,5,-0.09338217
36.15828,18.550926,7.8994927,16.0,13,-0.09337987
3.868945,1.9841008,-0.22787078,33.0,6,-0.09337757
33.712326,17.281193,8.746097,30.0,14,-0.09337526
4.3602095,2.234113,-0.08551679,24.0,7,-0.093372956
34.084698,17.457031,10.261141,20.0,15,-0.09337065
2.0594695,1.0516181,-0.6196128,35.0,0,-0.09334992
5.2524858,2.6808956,0.10293429,36.0,8,-0.09334762
2.2288659,1.1371342,-0.57767427,47.0,1,-0.09334531
6.36795,3.2474368,0.37462083,40.0,9,-0.093343005
2.4415493,1.2451067,-0.53273875,39.0,2,-0.0933407
8.380125,4.2717295,0.8229245,30.0,10,-0.0933384
2.6735518,1.3622427,-0.47524795,48.0,3,-0.09333609
12.774902,6.5063376,1.7602808,36.0,11,-0.09333379
2.8393164,1.4454559,-0.3912006,47.0,4,-0.093331486
30.029583,15.281038,5.336606,16.0,12,-0.093329184
3.3205693,1.6897253,-0.32596248,39.0,5,-0.093326874
36.15981,18.39258,7.8857546,16.0,13,-0.09332457
3.8847487,1.9751103,-0.22839414,33.0,6,-0.09332227
33.826298,17.19077,8.760044,30.0,14,-0.09331997
4.380461,2.22522,-0.08576112,27.0,7,-0.093317665
34.0214,17.27498,10.22387,9.0,15,-0.093315355
2.0303802,1.0278442,-0.6097777,32.0,0,-0.09329462
5.158325,2.6101773,0.100909814,38.0,8,-0.09329232
2.1997814,1.1126361,-0.5691262,45.0,1,-0.093290016
6.42559,3.2486167,0.37734228,37.0,9,-0.09328771
2.3828065,1.204687,-0.5190005,32.0,2,-0.093285404
8.334528,4.211896,0.81699795,27.0,10,-0.0932831
2.6624217,1.3448868,-0.47243217,47.0,3,-0.0932808
12.792221,6.4590173,1.7595497,42.0,11,-0.09327849
2.8478897,1.4373243,-0.3916881,47.0,4,-0.09327619
29.924007,15.096053,5.308448,22.0,12,-0.093273886
3.2926486,1.6610742,-0.32265055,49.0,5,-0.09327158
36.150166,18.229109,7.8697267,16.0,13,-0.09326928
3.847032,1.939063,-0.22577733,24.0,6,-0.09326697
33.86521,17.062073,8.754645,30.0,14,-0.09326467
4.3131895,2.1721404,-0.084295124,31.0,7,-0.09326237
2.0494955,1.0285487,-0.61443645,35.0,0,-0.09323932
5.156679,2.5867794,0.100700386,34.0,8,-0.09323702
2.1792636,1.0927213,-0.5628275,50.0,1,-0.09323472
6.4333205,3.2243755,0.37713292,33.0,9,-0.093232416
2.3799772,1.1928428,-0.517474,32.0,2,-0.09323011
8.423991,4.2202644,0.824319,33.0,10,-0.0932278
2.6494374,1.3267394,-0.46930346,45.0,3,-0.0932255
12.693982,6.3539014,1.7429756,40.0,11,-0.0932232
2.897271,1.4495821,-0.39778158,36.0,4,-0.0932209
29.817516,14.911977,5.2802896,22.0,12,-0.09321859
3.2770436,1.6388756,-0.32055882,49.0,5,-0.093216285
3.7412179,1.8693829,-0.21918301,28.0,6,-0.09321168
33.823456,16.893246,8.728551,11.0,14,-0.09320937
4.392311,2.192798,-0.08569132,33.0,7,-0.09320707
34.504166,17.218206,10.332574,20.0,15,-0.09320477
2.0720992,1.0308541,-0.6201305,38.0,0,-0.09318403
5.2408795,2.606158,0.102166384,40.0,8,-0.09318173
2.217966,1.1024549,-0.57182556,41.0,1,-0.09317942
6.3515253,3.1556897,0.37169,37.0,9,-0.09317712
2.4087412,1.1967582,-0.5228167,33.0,2,-0.093174815
8.440456,4.191717,0.8244933,22.0,10,-0.09317251
2.664669,1.3227521,-0.47118065,40.0,3,-0.0931702
12.740978,6.3219085,1.7463878,44.0,11,-0.0931679
2.8454053,1.4112345,-0.38998193,38.0,4,-0.0931656
29.727804,14.737604,5.25526,32.0,12,-0.0931633
3.2773898,1.6247709,-0.32003587,51.0,5,-0.09316099
3.8640544,1.9139333,-0.22598669,30.0,6,-0.09315638
33.859516,16.763826,8.722702,18.0,14,-0.09315408
4.3676777,2.1614883,-0.085063025,33.0,7,-0.09315177
34.584846,17.10793,10.338786,20.0,15,-0.09314947
2.058359,1.0150698,-0.6149541,38.0,0,-0.09312873
5.291198,2.6081843,0.10296919,42.0,8,-0.09312643
2.2148077,1.0912625,-0.570026,41.0,1,-0.09312413
6.3607116,3.1326156,0.37158534,30.0,9,-0.09312182
2.455174,1.2091597,-0.5319755,31.0,2,-0.09311952
8.424649,4.1472716,0.82153004,33.0,10,-0.093117215
2.6621795,1.309956,-0.4699292,45.0,3,-0.09311491
12.725563,6.2589936,1.7412694,48.0,11,-0.0931126
2.8556588,1.4039202,-0.39071316,31.0,4,-0.0931103
29.594675,14.543159,5.2227216,21.0,12,-0.093108
3.3152266,1.6291399,-0.3231735,55.0,5,-0.093105696
44.712822,21.962673,9.683175,29.0,13,-0.09310339
3.784656,1.8581809,-0.22096242,22.0,6,-0.093101084
33.84784,16.611216,8.704706,15.0,14,-0.09309878
4.3518577,2.1347792,-0.08460926,33.0,7,-0.09309648
33.5325,16.44192,10.00698,19.0,15,-0.09309417
2.0670955,1.0104252,-0.616507,45.0,0,-0.093073435
5.0469356,2.4659185,0.098047614,26.0,8,-0.09307113
2.225608,1.0869447,-0.57182556,41.0,1,-0.09306883
6.2800694,3.065713,0.36624706,32.0,9,-0.09306653
2.3711658,1.1575212,-0.51289463,28.0,2,-0.09306422
8.260016,4.0304646,0.8040989,27.0,10,-0.09306192
2.673838,1.3041183,-0.47118065,49.0,3,-0.093059614
12.745547,6.2136674,1.7410256,44.0,11,-0.09305731
2.8855247,1.4061184,-0.3941255,27.0,4,-0.093055
29.005938,14.12835,5.110089,15.0,12,-0.0930527
3.3226852,1.6184293,-0.3233478,50.0,5,-0.0930504
