x,y,z,intensity,ring,time
1.9991971,-8.23852,-0.74169534,40.0,5,-0.041417006
2.6408324,-10.899242,-0.58773285,45.0,6,-0.0414124
16.988789,-70.16963,16.667973,18.0,14,-0.041410092
3.9432025,-16.29925,-0.29271176,11.0,7,-0.04140779
0.7840428,-3.2607582,-0.8986198,29.0,0,-0.04138475
11.206679,-46.643307,0.83733153,8.0,8,-0.041382447
0.8952914,-3.729156,-0.8854073,33.0,1,-0.04138014
1.0144247,-4.228633,-0.8452839,30.0,2,-0.041375533
1.2230433,-5.1061196,-0.83160573,30.0,3,-0.041370925
15.058167,-62.915257,7.9432006,28.0,11,-0.041368622
1.466904,-6.1336675,-0.77435786,37.0,4,-0.041366316
15.099437,-63.1851,10.289322,31.0,12,-0.041364014
1.9620914,-8.210567,-0.7385577,40.0,5,-0.04136171
15.262563,-63.91706,12.773518,47.0,13,-0.041359406
2.611114,-10.943363,-0.58961695,41.0,6,-0.0413571
17.405397,-73.00368,17.32663,20.0,14,-0.041354798
3.704622,-15.550373,-0.27902907,3.0,7,-0.04135249
0.7708755,-3.2559557,-0.8965492,31.0,0,-0.041329455
11.045642,-46.689926,0.8374712,8.0,8,-0.04132715
0.875544,-3.7038114,-0.87865883,28.0,1,-0.041324846
1.014551,-4.295201,-0.8578773,31.0,2,-0.04132024
1.2074798,-5.119971,-0.83317006,32.0,3,-0.04131563
14.811148,-62.851505,7.928577,28.0,11,-0.041313324
1.4723278,-6.2527537,-0.7887384,50.0,4,-0.041311022
14.894175,-63.302795,10.299959,31.0,12,-0.041308716
1.9352453,-8.225124,-0.739255,40.0,5,-0.041306414
15.106312,-64.25471,12.8303795,47.0,13,-0.041304108
2.6057847,-11.092402,-0.5971533,41.0,6,-0.041301806
3.6658456,-15.629403,-0.28021586,3.0,7,-0.041297197
0.7695915,-3.3018994,-0.9084549,40.0,0,-0.041274156
11.048597,-47.44101,0.85024637,8.0,8,-0.041271854
0.8696768,-3.7372134,-0.8858573,32.0,1,-0.04126955
0.9959951,-4.2834177,-0.8548243,25.0,2,-0.04126494
1.1878135,-5.116458,-0.8319186,30.0,3,-0.041260332
1.4177719,-6.116686,-0.77094555,41.0,4,-0.041255724
1.9092195,-8.243475,-0.7403009,39.0,5,-0.041251116
15.103238,-65.263405,13.021189,49.0,13,-0.041248813
2.596298,-11.227915,-0.603957,43.0,6,-0.04124651
3.8960087,-16.87547,-0.3023106,11.0,7,-0.041241903
0.7550369,-3.291385,-0.9048314,35.0,0,-0.041218862
10.885615,-47.490986,0.8504558,8.0,8,-0.041216556
0.8505353,-3.7136326,-0.8795586,32.0,1,-0.041214254
0.99067163,-4.328972,-0.8632199,27.0,2,-0.041209646
1.1752262,-5.143682,-0.83567303,32.0,3,-0.041205037
1.4176031,-6.2144957,-0.782645,39.0,4,-0.04120043
14.684539,-64.426,10.465779,34.0,12,-0.041198127
1.8658211,-8.185985,-0.73454857,35.0,5,-0.04119582
2.5734863,-11.308966,-0.60782987,42.0,6,-0.041191213
16.05062,-70.59001,16.712963,18.0,14,-0.04118891
3.8415103,-16.908464,-0.30265963,11.0,7,-0.041186605
0.74056596,-3.2808094,-0.9012079,34.0,0,-0.041163564
11.127174,-49.335033,0.8827776,9.0,8,-0.04116126
0.8384243,-3.7203813,-0.8804585,28.0,1,-0.04115896
0.97555506,-4.332403,-0.8632199,27.0,2,-0.04115435
1.1663628,-5.1882253,-0.84224325,29.0,3,-0.041149743
1.4228547,-6.3394947,-0.7977568,45.0,4,-0.041145135
14.4509115,-64.43832,10.459522,34.0,12,-0.04114283
1.835927,-8.186615,-0.7340256,39.0,5,-0.041140527
14.276367,-63.712036,12.691469,47.0,13,-0.04113822
2.5641043,-11.452363,-0.6150522,38.0,6,-0.04113592
3.812998,-17.05838,-0.30510297,15.0,7,-0.04113131
0.7324599,-3.298462,-0.9053491,40.0,0,-0.04110827
10.963563,-49.41262,0.8834757,9.0,8,-0.041105967
0.8250108,-3.7213826,-0.8800085,31.0,1,-0.04110366
0.9744376,-4.3990364,-0.8758133,33.0,2,-0.041099053
1.1525114,-5.211553,-0.84537196,34.0,3,-0.041094445
1.3942982,-6.3153462,-0.7941007,46.0,4,-0.041089837
1.8326625,-8.307764,-0.74430996,39.0,5,-0.04108523
14.144308,-64.171776,12.773136,47.0,13,-0.041082926
2.5176685,-11.431984,-0.6134821,29.0,6,-0.04108062
3.8294365,-17.417274,-0.3112811,15.0,7,-0.041076012
0.7213534,-3.302886,-0.90586674,37.0,0,-0.041052975
0.8178275,-3.750896,-0.8863072,31.0,1,-0.041048367
0.95197177,-4.3698006,-0.8693258,31.0,2,-0.04104376
1.1301143,-5.196242,-0.84224325,34.0,3,-0.04103915
13.987661,-64.369064,8.087982,31.0,11,-0.041036844
1.3781414,-6.347333,-0.797513,46.0,4,-0.041034542
13.965525,-64.37547,10.433241,33.0,12,-0.041032236
1.8070309,-8.329688,-0.74570453,34.0,5,-0.041029934
14.2587595,-65.78258,13.083773,49.0,13,-0.041027628
2.5382013,-11.71984,-0.6284502,38.0,6,-0.041025326
3.8112981,-17.627943,-0.3148065,12.0,7,-0.041020717
0.7138762,-3.3242717,-0.9110431,37.0,0,-0.04112792
11.609224,-54.10613,0.9659209,11.0,8,-0.041125618
0.7932916,-3.7003753,-0.8737099,27.0,1,-0.041123312
0.9506937,-4.438367,-0.8823008,34.0,2,-0.041118704
1.1189911,-5.232994,-0.847562,32.0,3,-0.041114096
13.73137,-64.26995,8.069458,30.0,11,-0.041111793
1.3547333,-6.346281,-0.79678184,48.0,4,-0.041109487
14.063776,-65.93846,10.678531,37.0,12,-0.041107185
1.7854245,-8.371019,-0.7488421,34.0,5,-0.04110488
2.5134985,-11.804814,-0.6325324,36.0,6,-0.04110027
3.826655,-18.003,-0.3212639,24.0,7,-0.041095663
0.70625764,-3.3456454,-0.9162195,37.0,0,-0.041072626
11.416578,-54.128708,0.96560675,23.0,8,-0.04107032
0.78117406,-3.7069354,-0.8746097,29.0,1,-0.041068017
0.93721706,-4.4512644,-0.884209,33.0,2,-0.04106341
1.1096573,-5.279397,-0.85444516,30.0,3,-0.0410588
1.3399097,-6.3859415,-0.80116916,48.0,4,-0.041054193
1.7570108,-8.381101,-0.74919075,35.0,5,-0.041049585
2.4902773,-11.899531,-0.637138,40.0,6,-0.041044977
3.7731967,-18.061268,-0.3220667,12.0,7,-0.04104037
0.69182825,-3.3348494,-0.912596,28.0,0,-0.041017327
11.226345,-54.162354,0.965502,11.0,8,-0.041015025
0.773367,-3.734447,-0.8804585,32.0,1,-0.04101272
0.91809386,-4.4372063,-0.8807744,34.0,2,-0.04100811
1.0940182,-5.29678,-0.8566352,34.0,3,-0.041003503
14.164173,-68.63745,8.605195,41.0,11,-0.0410012
1.3140025,-6.3730817,-0.79897547,52.0,4,-0.040998895
1.733774,-8.416454,-0.7518054,27.0,5,-0.040994287
2.4390697,-11.8612,-0.63462585,38.0,6,-0.04098968
3.7065089,-18.0567,-0.32175258,8.0,7,-0.040985074
0.6809551,-3.3410294,-0.91363126,26.0,0,-0.040962033
0.77198195,-3.7944121,-0.89395547,32.0,1,-0.040957425
0.90533733,-4.4538507,-0.8834457,33.0,2,-0.040952817
1.0814149,-5.3296056,-0.86132824,32.0,3,-0.04094821
13.294227,-65.57754,8.2157,33.0,11,-0.040945902
1.29766,-6.4068136,-0.80263156,48.0,4,-0.0409436
1.7284908,-8.541575,-0.7624384,37.0,5,-0.040938992
2.4083288,-11.922501,-0.637452,38.0,6,-0.040934384
3.6485944,-18.095013,-0.32220635,12.0,7,-0.040929776
0.6609457,-3.3017125,-0.9022432,28.0,0,-0.040906735
0.7514775,-3.7607756,-0.8854073,33.0,1,-0.040902127
0.88824695,-4.4492826,-0.8819192,33.0,2,-0.04089752
1.0554695,-5.29654,-0.85538375,35.0,3,-0.040892914
1.2826461,-6.448296,-0.8072626,45.0,4,-0.040888306
13.383756,-67.284676,10.865626,39.0,12,-0.040886
1.7087617,-8.598366,-0.7669705,39.0,5,-0.040883698
2.397399,-12.085602,-0.6457211,33.0,6,-0.04087909
3.730851,-18.824934,-0.33498147,12.0,7,-0.04087448
0.65016204,-3.3077905,-0.9032785,27.0,0,-0.04085144
0.7491408,-3.8148768,-0.8975547,34.0,1,-0.040846832
0.876865,-4.473549,-0.886117,34.0,2,-0.040842224
1.0447327,-5.3349047,-0.8610154,37.0,3,-0.040837616
12.904727,-65.95873,8.252261,34.0,11,-0.040835313
1.2570673,-6.4310837,-0.80458146,45.0,4,-0.040833008
1.6978139,-8.702054,-0.7756861,37.0,5,-0.0408284
2.3477547,-12.044476,-0.64310426,31.0,6,-0.04082379
3.696817,-19.000763,-0.33787858,20.0,7,-0.040819183
0.646149,-3.3459675,-0.9131136,31.0,0,-0.040796146
0.7321314,-3.7983334,-0.8930557,28.0,1,-0.040791538
0.8661089,-4.4976387,-0.8903149,33.0,2,-0.04078693
1.0339346,-5.3792562,-0.86758566,39.0,3,-0.04078232
12.674416,-66.00338,8.252261,34.0,11,-0.040780015
1.2390982,-6.458827,-0.8075063,41.0,4,-0.040777713
13.035659,-68.01282,10.968247,41.0,12,-0.040775407
1.6809176,-8.778374,-0.78196126,37.0,5,-0.040773105
2.308324,-12.06633,-0.64383703,42.0,6,-0.040768497
3.6841033,-19.294434,-0.34287,12.0,7,-0.04076389
0.6313656,-3.3350265,-0.90949017,27.0,0,-0.040740848
0.71669525,-3.789377,-0.89035624,28.0,1,-0.04073624
0.84415567,-4.4718447,-0.88459057,34.0,2,-0.04073163
1.0164053,-5.3946567,-0.86946285,34.0,3,-0.040727023
1.2235225,-6.5001793,-0.8121374,43.0,4,-0.040722415
12.787955,-68.00355,10.959488,41.0,12,-0.040720113
1.6436423,-8.748941,-0.77882373,34.0,5,-0.040717807
2.2581952,-12.043301,-0.64216226,33.0,6,-0.0407132
3.6848428,-19.670795,-0.34932736,12.0,7,-0.040708594
0.6246586,-3.363801,-0.9167371,27.0,0,-0.040685553
0.7088389,-3.8245523,-0.8980046,27.0,1,-0.040680945
0.838907,-4.530747,-0.8956575,37.0,2,-0.040676337
0.9968509,-5.3942866,-0.8688371,35.0,3,-0.04067173
1.2065308,-6.541711,-0.8167684,35.0,4,-0.04066712
1.6152596,-8.766381,-0.77986956,39.0,5,-0.040662512
2.224449,-12.09629,-0.6445697,42.0,6,-0.040657904
3.6381993,-19.80351,-0.35145655,17.0,7,-0.040653296
0.61429685,-3.373564,-0.9188076,27.0,0,-0.040630255
0.68813074,-3.7827845,-0.88765687,28.0,1,-0.040625647
0.8311521,-4.578077,-0.9044347,34.0,2,-0.04062104
0.97402185,-5.370352,-0.864457,34.0,3,-0.04061643
1.194731,-6.60037,-0.8235931,37.0,4,-0.040611826
1.5864211,-8.78177,-0.7807411,39.0,5,-0.040607218
2.189291,-12.131117,-0.64603513,33.0,6,-0.04060261
3.551324,-19.71769,-0.3497113,17.0,7,-0.040598
0.6024274,-3.371779,-0.9177724,27.0,0,-0.04057496
12.164688,-68.15435,1.2084396,36.0,8,-0.040572654
0.68860525,-3.8619027,-0.9056529,34.0,1,-0.040570352
0.81734306,-4.588539,-0.90596116,31.0,2,-0.040565744
0.9559618,-5.3776083,-0.8650827,35.0,3,-0.040561136
1.1706445,-6.598636,-0.82286185,39.0,4,-0.040556528
1.5572907,-8.786982,-0.7807411,39.0,5,-0.04055192
2.1629329,-12.229156,-0.65085006,29.0,6,-0.04054731
3.3893235,-19.202206,-0.34035683,12.0,7,-0.040542703
0.5909867,-3.375764,-0.91829,23.0,0,-0.040519666
12.085176,-69.10251,1.2244958,39.0,8,-0.04051736
0.67143124,-3.8431666,-0.900704,33.0,1,-0.040515058
0.7959208,-4.56042,-0.89985526,34.0,2,-0.04051045
0.93718445,-5.380913,-0.8650827,34.0,3,-0.04050584
1.1340064,-6.5244513,-0.8131123,39.0,4,-0.040501233
1.5136559,-8.717771,-0.77411723,39.0,5,-0.040496625
2.1243236,-12.260245,-0.6521061,33.0,6,-0.040492017
3.3239799,-19.223772,-0.34053135,4.0,7,-0.04048741
0.5834442,-3.402559,-0.92501926,25.0,0,-0.040464368
11.736525,-68.51749,1.213396,37.0,8,-0.040462065
0.6635994,-3.8781407,-0.9083523,34.0,1,-0.04045976
0.7849594,-4.5921984,-0.90557957,33.0,2,-0.04045515
0.92038864,-5.395835,-0.8669599,35.0,3,-0.040450543
1.1238825,-6.6027336,-0.8223744,43.0,4,-0.040445935
1.4721954,-8.658182,-0.76836497,37.0,5,-0.040441327
2.1306298,-12.557046,-0.66749287,29.0,6,-0.04043672
3.2501762,-19.195824,-0.33983326,4.0,7,-0.04043211
0.57636064,-3.433153,-0.93278384,26.0,0,-0.040409073
11.3573885,-67.723816,1.1986313,100.0,8,-0.040406767
0.65038043,-3.8823555,-0.9088022,33.0,1,-0.040404465
0.7604993,-4.5445657,-0.8956575,33.0,2,-0.040399857
0.89894575,-5.3834276,-0.864457,34.0,3,-0.04039525
1.1226876,-6.737809,-0.8387049,37.0,4,-0.04039064
8.569148,-51.48316,8.266311,28.0,12,-0.040388335
1.4229903,-8.549279,-0.758255,35.0,5,-0.040386032
2.1015098,-12.653069,-0.6722031,35.0,6,-0.040381424
3.3639538,-20.298004,-0.35913563,12.0,7,-0.040376816
0.5653131,-3.440863,-0.9343368,25.0,0,-0.040353775
11.223577,-68.38859,1.209696,100.0,8,-0.040351473
0.6320955,-3.8557563,-0.9020537,32.0,1,-0.040349167
0.7544669,-4.607253,-0.9074876,31.0,2,-0.04034456
0.8737768,-5.3475423,-0.85819954,35.0,3,-0.04033995
1.1077858,-6.794586,-0.84528583,46.0,4,-0.040335342
8.375414,-51.426968,8.252544,14.0,12,-0.04033304
1.3992238,-8.591557,-0.7615669,29.0,5,-0.040330738
2.087763,-12.8476095,-0.6821469,43.0,6,-0.04032613
3.284118,-20.254353,-0.3581583,8.0,7,-0.04032152
0.5536057,-3.4447227,-0.93485445,25.0,0,-0.04029848
11.166721,-69.56067,1.2297316,39.0,8,-0.040296175
0.6251119,-3.8983462,-0.91150165,29.0,1,-0.040293872
0.7352743,-4.590473,-0.90367144,30.0,2,-0.040289264
0.86165214,-5.3915224,-0.8647698,39.0,3,-0.040284656
1.0921896,-6.84938,-0.85162306,43.0,4,-0.040280048
1.3726734,-8.618032,-0.7634843,22.0,5,-0.04027544
2.0507402,-12.904132,-0.6847637,45.0,6,-0.04027083
3.2112045,-20.25187,-0.35791397,8.0,7,-0.040266223
0.5424771,-3.4523594,-0.9364074,24.0,0,-0.040243182
10.834229,-69.0283,1.219644,100.0,8,-0.04024088
0.60848236,-3.8812523,-0.9070026,33.0,1,-0.040238578
0.72046155,-4.600771,-0.905198,27.0,2,-0.04023397
0.8477057,-5.425725,-0.8697758,32.0,3,-0.04022936
1.0627705,-6.8178453,-0.84723574,45.0,4,-0.040224753
7.9833593,-51.273384,8.218755,14.0,12,-0.040222447
1.3652639,-8.768452,-0.7763833,26.0,5,-0.040220145
2.000473,-12.877661,-0.6829843,37.0,6,-0.040215537
8.38169,-54.017704,12.620204,16.0,14,-0.04021323
3.1558082,-20.361761,-0.3596592,4.0,7,-0.04021093
0.52309275,-3.4064949,-0.9234664,22.0,0,-0.040187888
0.5931594,-3.871795,-0.9043032,33.0,1,-0.04018328
0.7017251,-4.585791,-0.9017634,28.0,2,-0.04017867
8.189733,-53.58269,4.742318,19.0,10,-0.04017637
0.8281649,-5.4247456,-0.86915,35.0,3,-0.040174063
1.0114666,-6.640967,-0.82481176,26.0,4,-0.040169455
7.9582314,-52.312542,8.380821,14.0,12,-0.040167153
1.3813944,-9.080442,-0.80357593,34.0,5,-0.040164847
1.975289,-13.014892,-0.6898926,39.0,6,-0.04016024
8.172641,-53.91176,12.588711,24.0,14,-0.040157937
3.2373886,-21.381,-0.37746063,13.0,7,-0.04015563
0.513491,-3.4235842,-0.9276075,19.0,0,-0.040132593
0.58656216,-3.9200974,-0.91510093,29.0,1,-0.040127985
0.69528896,-4.652289,-0.91435677,34.0,2,-0.040123377
8.060891,-54.00112,4.7768316,19.0,10,-0.04012107
0.8135939,-5.4569097,-0.8738431,30.0,3,-0.04011877
0.99645627,-6.699435,-0.8316365,39.0,4,-0.04011416
7.76107,-52.24231,8.365178,14.0,12,-0.040111855
1.3505687,-9.091121,-0.8040989,42.0,5,-0.040109552
7.886199,-53.148453,10.444122,33.0,13,-0.040107246
1.9529777,-13.177788,-0.6981617,39.0,6,-0.040104944
7.965849,-53.814663,12.559467,8.0,14,-0.04010264
3.1761909,-21.48317,-0.3790663,27.0,7,-0.040100336
7.734553,-52.378265,14.186908,27.0,15,-0.040098034
0.5012573,-3.423444,-0.92708987,20.0,0,-0.040077295
0.5740014,-3.929834,-0.9169005,27.0,1,-0.040072687
0.6756447,-4.631375,-0.90977734,31.0,2,-0.04006808
7.884407,-54.111736,4.784153,38.0,10,-0.040065777
0.79112625,-5.4362593,-0.8700886,30.0,3,-0.04006347
0.9667912,-6.6596537,-0.8262742,33.0,4,-0.040058862
7.5973625,-52.39811,8.385827,14.0,12,-0.04005656
1.3391235,-9.235776,-0.816475,40.0,5,-0.040054254
1.9215486,-13.285334,-0.7035,39.0,6,-0.04004965
7.50463,-51.95006,12.1181135,15.0,14,-0.040047344
3.1117465,-21.567356,-0.38035774,9.0,7,-0.04004504
7.5715094,-52.54262,14.224178,28.0,15,-0.040042736
0.49258298,-3.448122,-0.9333015,20.0,0,-0.040022
0.5602801,-3.9318135,-0.9169005,31.0,1,-0.040017392
0.6672195,-4.688128,-0.92046267,31.0,2,-0.040012784
7.6304216,-53.681293,4.7437124,19.0,10,-0.04001048
0.78103065,-5.501572,-0.8801004,33.0,3,-0.040008176
0.94465196,-6.67085,-0.82724917,39.0,4,-0.040003568
7.3823295,-52.197426,8.349534,14.0,12,-0.040001266
1.294601,-9.153593,-0.8088053,35.0,5,-0.03999896
7.535829,-53.349953,10.473125,33.0,13,-0.039996658
1.8846463,-13.359202,-0.7070588,39.0,6,-0.03999435
7.318356,-51.941208,12.110015,22.0,14,-0.03999205
3.2250886,-22.918674,-0.4039883,4.0,7,-0.039989743
7.400421,-52.656727,14.247989,28.0,15,-0.03998744
0.48107633,-3.4536476,-0.9343368,20.0,0,-0.039966702
0.5468206,-3.9356751,-0.91735035,25.0,1,-0.039962098
0.6457237,-4.6534805,-0.9132119,33.0,2,-0.03995749
7.4769053,-53.95232,4.7653275,19.0,10,-0.039955184
0.76073897,-5.496438,-0.8788489,33.0,3,-0.03995288
0.9224463,-6.681973,-0.8282241,39.0,4,-0.039948273
1.2844094,-9.315953,-0.8227502,42.0,5,-0.039943665
7.176562,-52.119526,10.226599,32.0,13,-0.03994136
1.8477995,-13.436931,-0.71082705,45.0,6,-0.039939057
7.473468,-54.41639,12.680941,8.0,14,-0.03993675
0.46979776,-3.4610486,-0.9358897,18.0,0,-0.039911408
0.53883034,-3.980045,-0.92724824,32.0,1,-0.0399068
10.580846,-78.257576,4.138623,49.0,9,-0.039904498
0.63184404,-4.6732163,-0.9166465,31.0,2,-0.03990219
7.1968226,-53.29887,4.705364,18.0,10,-0.03989989
0.7365317,-5.4618645,-0.8729044,30.0,3,-0.039897583
0.8991168,-6.685152,-0.8282241,39.0,4,-0.039892975
1.2415397,-9.243368,-0.81595206,28.0,5,-0.039888367
6.90532,-51.478786,10.0960865,32.0,13,-0.039886065
1.8024752,-13.455176,-0.71145505,46.0,6,-0.03988376
7.304151,-54.59667,12.716932,8.0,14,-0.039881457
3.1259181,-23.39651,-0.41201642,4.0,7,-0.03987915
0.45720717,-3.4588373,-0.93485445,17.0,0,-0.039856113
10.37764,-78.61392,1.3841155,61.0,8,-0.039853808
0.52264214,-3.9645133,-0.9231991,31.0,1,-0.039851505
8.508815,-64.63084,3.4163866,23.0,9,-0.0398492
0.61655253,-4.6831794,-0.91817296,30.0,2,-0.039846897
0.72337675,-5.5094495,-0.8801004,35.0,3,-0.03984229
0.87860984,-6.709901,-0.83090526,41.0,4,-0.03983768
6.694967,-51.198498,8.178082,13.0,12,-0.039835375
1.2214092,-9.340497,-0.82414466,42.0,5,-0.039833073
1.7707349,-13.578236,-0.7176307,34.0,6,-0.039828464
7.0128617,-53.84886,12.536972,8.0,14,-0.03982616
3.5043197,-26.94494,-0.4742866,5.0,7,-0.039823856
6.830693,-52.593403,14.210719,27.0,15,-0.03982155
0.4448842,-3.4584959,-0.9343368,19.0,0,-0.039785385
12.6036,-98.11473,1.7266713,63.0,8,-0.039783083
0.5149995,-4.014636,-0.9344467,26.0,1,-0.039780777
8.281128,-64.6443,3.4155495,23.0,9,-0.039778475
0.6046915,-4.720355,-0.92504203,31.0,2,-0.03977617
6.795225,-53.118572,4.685144,18.0,10,-0.039773867
0.7096468,-5.5550485,-0.8869835,29.0,3,-0.03977156
0.8506678,-6.6774817,-0.826518,43.0,4,-0.039766952
1.1996078,-9.429692,-0.8316401,43.0,5,-0.039762344
1.7567593,-13.8478565,-0.73155206,26.0,6,-0.039757736
6.660021,-52.571915,12.234188,22.0,14,-0.039755434
3.4263046,-27.083977,-0.4765205,5.0,7,-0.039753128
6.5899286,-52.164604,14.088556,27.0,15,-0.039750826
0.43496746,-3.47728,-0.93899554,17.0,0,-0.03973009
0.4954343,-3.971933,-0.92409897,24.0,1,-0.039725482
7.549847,-60.613792,3.2011814,15.0,9,-0.039723177
0.58748263,-4.7165923,-0.92389715,33.0,2,-0.039720874
6.673708,-53.656025,4.730465,19.0,10,-0.03971857
0.69195676,-5.5712147,-0.8891736,36.0,3,-0.039716266
0.83930886,-6.7769423,-0.8384611,24.0,4,-0.039711658
6.3941035,-51.70273,8.251293,14.0,12,-0.039709352
1.16962,-9.457549,-0.8337318,42.0,5,-0.03970705
6.389449,-51.739223,10.133485,32.0,13,-0.039704744
1.7159864,-13.915354,-0.7347969,26.0,6,-0.03970244
6.5891275,-53.50968,12.446991,24.0,14,-0.039700136
6.4727726,-52.716507,14.231425,28.0,15,-0.039695527
0.43005255,-3.5382268,-0.9550423,15.0,0,-0.039674792
0.47898802,-3.9523573,-0.91914994,32.0,1,-0.039670184
7.3247876,-60.52874,3.19532,15.0,9,-0.039667882
0.5778554,-4.775136,-0.9349641,31.0,2,-0.039665576
6.501662,-53.805584,4.741621,19.0,10,-0.039663274
0.6732157,-5.5794787,-0.89011216,35.0,3,-0.039660968
0.8559558,-7.1148806,-0.8798967,43.0,4,-0.03965636
6.2253675,-51.8228,8.266936,14.0,12,-0.039654057
1.1480061,-9.556527,-0.8420988,42.0,5,-0.03965175
6.3196354,-52.685173,10.314372,33.0,13,-0.03964945
1.6951935,-14.153279,-0.74704355,34.0,6,-0.039647143
6.4485855,-53.919346,12.536972,8.0,14,-0.03964484
3.3675578,-28.19931,-0.49571815,5.0,7,-0.03964254
6.279573,-52.662052,14.210719,27.0,15,-0.039640233
0.42132145,-3.570403,-0.9633245,15.0,0,-0.039619498
0.47839478,-4.0662584,-0.9452443,26.0,1,-0.03961489
7.0803676,-60.272266,3.1804564,14.0,9,-0.039612584
0.56805503,-4.8356194,-0.9464126,33.0,2,-0.03961028
6.328202,-53.95064,4.7524285,19.0,10,-0.039607976
0.6643048,-5.672045,-0.9045042,28.0,3,-0.039605673
0.83848286,-7.180919,-0.8876964,43.0,4,-0.039601065
6.6419454,-56.96919,9.08415,17.0,12,-0.039598763
1.1174092,-9.584225,-0.84419054,42.0,5,-0.039596457
5.9545336,-51.15074,10.009841,31.0,13,-0.039594155
1.6351728,-14.067852,-0.7422286,26.0,6,-0.03959185
6.268644,-54.013153,12.553618,16.0,14,-0.039589547
3.3699238,-29.080938,-0.5110065,6.0,7,-0.03958724
0.40885574,-3.5718522,-0.9633245,12.0,0,-0.0395642
0.4597795,-4.02918,-0.9362463,40.0,1,-0.03955959
6.8780727,-60.368057,3.1842246,14.0,9,-0.03955729
0.55272776,-4.851228,-0.94908404,33.0,2,-0.039554983
7.118555,-62.575832,5.509986,29.0,10,-0.03955268
0.6445021,-5.6743293,-0.9045042,24.0,3,-0.03955038
0.8178775,-7.2232523,-0.89257115,46.0,4,-0.03954577
5.771561,-51.05237,8.137409,13.0,12,-0.039543465
1.0906625,-9.647459,-0.84941983,42.0,5,-0.039541163
1.6048431,-14.240188,-0.751021,22.0,6,-0.039536554
5.8497424,-51.987804,12.078072,22.0,14,-0.03953425
3.2831259,-29.223679,-0.5133102,6.0,7,-0.039531946
5.7610307,-51.36074,13.848372,25.0,15,-0.03952964
0.39255157,-3.538696,-0.954007,10.0,0,-0.039508905
0.45021042,-4.071436,-0.9456942,32.0,1,-0.039504297
6.5498314,-59.327633,3.1281204,12.0,9,-0.039501995
0.53342044,-4.8316617,-0.9448862,33.0,2,-0.03949969
5.97694,-54.22521,4.7728224,38.0,10,-0.039497387
0.6229623,-5.660836,-0.90200126,28.0,3,-0.03949508
0.79417443,-7.239876,-0.89427733,48.0,4,-0.039490473
5.5997705,-51.131115,8.146795,13.0,12,-0.03948817
1.0732477,-9.799749,-0.8624933,38.0,5,-0.039485864
1.6099629,-14.748025,-0.7775031,38.0,6,-0.039481256
5.6745687,-52.06603,12.091569,7.0,14,-0.039478954
3.2027266,-29.433758,-0.51680064,6.0,7,-0.039476648
5.499514,-50.623837,13.644423,23.0,15,-0.039474346
0.38494146,-3.5842235,-0.9659127,9.0,0,-0.03945361
0.42811325,-3.9993515,-0.928598,26.0,1,-0.039449003
6.8516417,-64.11244,3.3791237,21.0,9,-0.039446697
0.51863766,-4.8530164,-0.94870234,33.0,2,-0.039444394
5.794603,-54.31112,4.778575,19.0,10,-0.03944209
0.61073047,-5.7336903,-0.9132645,29.0,3,-0.039439786
0.77078456,-7.2603703,-0.89647096,46.0,4,-0.039435178
6.069997,-57.27134,9.121695,17.0,12,-0.039432872
1.0482728,-9.890613,-0.8701629,42.0,5,-0.03943057
1.5601493,-14.769445,-0.7783404,36.0,6,-0.03942596
5.4533496,-51.71148,12.004738,14.0,14,-0.039423656
3.468881,-32.948853,-0.5783029,7.0,7,-0.039421353
3.820782,-36.35233,9.794231,18.0,15,-0.039419048
0.37362525,-3.5970745,-0.9690186,9.0,0,-0.039398313
0.41936767,-4.0512195,-0.94029546,29.0,1,-0.039393704
6.1178374,-59.201054,3.1191187,12.0,9,-0.039391402
0.4964477,-4.8040223,-0.93878025,31.0,2,-0.039389096
5.614383,-54.422184,4.7865934,19.0,10,-0.039386794
0.5862609,-5.692558,-0.90638137,28.0,3,-0.039384488
0.74523264,-7.2610416,-0.89622724,50.0,4,-0.03937988
1.018006,-9.935833,-0.8738234,42.0,5,-0.03937527
1.5189328,-14.876134,-0.7836787,29.0,6,-0.039370663
5.436429,-53.335445,12.377257,23.0,14,-0.03936836
3.3740885,-33.159706,-0.5817934,7.0,7,-0.03936606
3.70324,-36.4577,9.8190775,18.0,15,-0.039363753
0.36260974,-3.6137342,-0.9731597,9.0,0,-0.039343018
7.025661,-70.14029,1.2304296,39.0,8,-0.039340712
0.40580523,-4.0584755,-0.94164515,34.0,1,-0.03933841
5.9214635,-59.325394,3.1245615,12.0,9,-0.039336104
0.48767003,-4.885822,-0.95442665,36.0,2,-0.0393338
5.99527,-60.17109,5.290354,24.0,10,-0.039331496
0.5699056,-5.729952,-0.91201305,28.0,3,-0.039329194
6.0424,-60.85949,7.509346,19.0,11,-0.039326888
0.7192957,-7.2576723,-0.895496,52.0,4,-0.039324585
5.802265,-58.64905,9.334446,18.0,12,-0.03932228
0.9831208,-9.937344,-0.8736491,40.0,5,-0.039319977
1.4760108,-14.972776,-0.78849363,29.0,6,-0.03931537
5.2389593,-53.239677,12.350713,23.0,14,-0.039313067
0.3470145,-3.5842123,-0.9648774,7.0,0,-0.03928772
6.7704015,-70.0569,1.2285447,39.0,8,-0.039285418
0.38957763,-4.0385303,-0.9366962,33.0,1,-0.03928311
5.68601,-59.051468,3.10907,12.0,9,-0.03928081
0.46703696,-4.850364,-0.9471759,30.0,2,-0.039278504
5.94227,-61.825844,5.433986,27.0,10,-0.0392762
0.54990065,-5.731906,-0.91201305,29.0,3,-0.039273895
5.817818,-60.75374,7.4937463,19.0,11,-0.039271593
0.694334,-7.264091,-0.89598346,52.0,4,-0.03926929
0.9342357,-9.791962,-0.8605758,33.0,5,-0.039264683
1.4146628,-14.882399,-0.7834693,23.0,6,-0.039260074
5.0390954,-53.110195,12.31652,39.0,14,-0.03925777
3.1732433,-33.50695,-0.5874829,23.0,7,-0.039255466
0.3386289,-3.6296422,-0.9767831,6.0,0,-0.039232425
5.162686,-55.441666,0.97192454,11.0,8,-0.03923012
0.38161027,-4.105839,-0.95199287,31.0,1,-0.039227817
5.062823,-54.472153,2.8670685,21.0,9,-0.03922551
0.44937828,-4.8441453,-0.94564945,30.0,2,-0.03922321
0.5277077,-5.7101865,-0.9082586,24.0,3,-0.0392186
5.622128,-60.95158,7.5156827,19.0,11,-0.0392163
0.67261326,-7.2920504,-0.8991521,48.0,4,-0.039213993
5.4119806,-58.78554,9.350089,18.0,12,-0.03921169
0.91536313,-9.961822,-0.875218,40.0,5,-0.039209384
4.998521,-54.50288,10.638747,34.0,13,-0.039207082
1.3774531,-15.048351,-0.7919478,38.0,6,-0.039204776
4.7659636,-52.06703,12.070874,7.0,14,-0.039202474
3.0826697,-33.742317,-0.59142715,23.0,7,-0.039200168
4.7383885,-51.965664,13.981923,26.0,15,-0.039197866
0.33005205,-3.669227,-0.9871359,6.0,0,-0.03917713
4.9147983,-54.74546,0.9594286,23.0,8,-0.039174825
0.37060118,-4.1361957,-0.95874137,32.0,1,-0.039172523
4.8992677,-54.679615,2.8771172,10.0,9,-0.039170217
0.43471074,-4.8612523,-0.94870234,28.0,2,-0.039167915
5.4075828,-60.59081,5.322078,24.0,10,-0.03916561
0.51174897,-5.745354,-0.9135774,36.0,3,-0.039163306
5.4350815,-61.139942,7.5366445,20.0,11,-0.039161
0.6484271,-7.2942414,-0.8991521,48.0,4,-0.0391587
5.243194,-59.098312,9.397019,18.0,12,-0.039156392
0.896031,-10.119603,-0.8888143,42.0,5,-0.03915409
1.3392986,-15.186136,-0.7989608,45.0,6,-0.03914948
4.5867686,-52.00878,12.053778,22.0,14,-0.039147176
2.9842584,-33.90574,-0.5941148,23.0,7,-0.039144874
4.567057,-51.992638,13.985029,26.0,15,-0.039142568
0.31854972,-3.6779997,-0.98920643,4.0,0,-0.039121833
4.7242727,-54.657856,0.9576135,34.0,8,-0.03911953
0.35788772,-4.149051,-0.9614408,28.0,1,-0.039117225
4.7013454,-54.614796,2.8728256,21.0,9,-0.039114922
0.42128173,-4.893964,-0.95480824,33.0,2,-0.039112616
5.1053367,-59.42927,5.2185373,22.0,10,-0.039110314
0.49724934,-5.80016,-0.9220248,31.0,3,-0.03910801
0.62414426,-7.310305,-0.9008582,46.0,4,-0.0391034
4.651501,-54.593224,8.678046,15.0,12,-0.039101098
0.8634827,-10.134429,-0.8898601,42.0,5,-0.03909879
4.2962894,-50.52854,9.857193,30.0,13,-0.03909649
1.2916335,-15.222334,-0.8006355,45.0,6,-0.039094184
3.0763404,-36.330917,8.417668,3.0,14,-0.03909188
2.880366,-34.08731,-0.59711665,24.0,7,-0.039089575
2.9320796,-34.771637,9.350098,8.0,15,-0.039087273
0.30858815,-3.7137432,-0.99852395,3.0,0,-0.03906654
4.5334573,-54.674015,0.9576135,22.0,8,-0.039064232
0.34388512,-4.1561017,-0.9627905,29.0,1,-0.03906193
4.509853,-54.620926,2.8723023,42.0,9,-0.039059624
0.40387276,-4.891491,-0.954045,31.0,2,-0.03905732
0.479914,-5.8372974,-0.9276565,24.0,3,-0.039052714
0.6000802,-7.330246,-0.9030519,45.0,4,-0.039048105
4.4689393,-54.707565,8.693689,15.0,12,-0.0390458
0.83215547,-10.187026,-0.8942179,35.0,5,-0.039043497
4.454522,-54.64852,10.657827,34.0,13,-0.03904119
1.2383292,-15.22476,-0.80053085,42.0,6,-0.03903889
4.010434,-49.41347,11.445509,25.0,14,-0.039036587
2.7778296,-34.300465,-0.60067695,24.0,7,-0.03903428
0.29485694,-3.7051687,-0.99593574,2.0,0,-0.03901124
5.0122895,-63.123672,1.1052959,44.0,8,-0.039008938
0.32891315,-4.1514487,-0.9614408,25.0,1,-0.03900663
4.3218436,-54.670185,2.8740819,43.0,9,-0.03900433
0.38803405,-4.9085283,-0.957098,34.0,2,-0.039002024
4.3105555,-54.64887,4.796006,19.0,10,-0.03899972
0.45922425,-5.834998,-0.92703074,26.0,3,-0.038997415
4.315086,-54.950897,6.767893,13.0,11,-0.038995113
0.5813116,-7.419373,-0.9137764,45.0,4,-0.038992807
4.3164415,-55.215176,8.771907,16.0,12,-0.038990505
0.8035797,-10.279253,-0.90206194,43.0,5,-0.038988203
4.334573,-55.57193,10.834899,35.0,13,-0.038985897
1.1918404,-15.314613,-0.8050318,33.0,6,-0.038983595
3.8530152,-49.62146,11.4904995,25.0,14,-0.03898129
2.6650314,-34.399666,-0.60224766,32.0,7,-0.038978986
2.559878,-33.11747,8.9002695,31.0,15,-0.03897668
0.2830938,-3.7215858,-1.0000768,2.0,0,-0.038955946
4.786315,-63.06701,1.1040044,43.0,8,-0.03895364
0.31339037,-4.1389694,-0.9582915,24.0,1,-0.038951337
4.137745,-54.774555,2.878792,32.0,9,-0.03894903
0.37829128,-5.0077367,-0.9761789,34.0,2,-0.03894673
4.1152816,-54.603977,4.7907767,19.0,10,-0.038944427
0.4379654,-5.824747,-0.92515355,35.0,3,-0.03894212
4.119376,-54.914158,6.7615557,13.0,11,-0.03893982
0.55615014,-7.431255,-0.91499513,46.0,4,-0.038937513
4.1242714,-55.237793,8.773159,16.0,12,-0.03893521
0.7693262,-10.303852,-0.90397936,36.0,5,-0.038932905
3.723181,-49.98341,9.742707,30.0,13,-0.038930602
1.1475517,-15.44217,-0.8115214,38.0,6,-0.038928296
3.948925,-53.26489,12.330916,7.0,14,-0.038925994
2.5496569,-34.47258,-0.6033646,24.0,7,-0.03892369
2.448244,-33.180145,8.914763,23.0,15,-0.038921386
0.27038085,-3.726405,-1.0011121,2.0,0,-0.038900647
0.30062532,-4.1633625,-0.96369034,24.0,1,-0.038896043
3.9823995,-55.286694,2.90496,11.0,9,-0.038893737
0.360245,-5.0011945,-0.9746524,36.0,2,-0.038891435
3.7387288,-52.03059,4.563823,17.0,10,-0.03888913
0.42285538,-5.8991427,-0.9367297,31.0,3,-0.038886826
2.570733,-35.95153,4.425564,5.0,11,-0.03888452
0.53995293,-7.569775,-0.93181306,50.0,4,-0.03888222
3.855713,-54.18783,8.60421,15.0,12,-0.038879912
0.74312264,-10.469568,-0.91827285,40.0,5,-0.03887761
3.821686,-53.84226,10.492206,34.0,13,-0.038875304
1.0984389,-15.513818,-0.8150802,31.0,6,-0.038873002
3.7611792,-53.25308,12.3250675,15.0,14,-0.038870696
2.4478593,-34.74457,-0.607972,24.0,7,-0.038868394
2.3360646,-33.240524,8.92874,15.0,15,-0.038866088
0.2588453,-3.7582076,-1.0093943,3.0,0,-0.038845353
0.28662428,-4.172163,-0.9654899,27.0,1,-0.038840745
4.3246226,-63.11119,3.315274,19.0,9,-0.038838442
0.34191218,-5.002481,-0.9746524,33.0,2,-0.038836136
0.40056163,-5.8907986,-0.93516535,31.0,3,-0.03883153
3.7008948,-54.426643,6.6981835,13.0,11,-0.038829226
0.5178244,-7.634991,-0.93961275,48.0,4,-0.03882692
3.6649437,-54.177315,8.600455,31.0,12,-0.038824618
0.70898646,-10.507879,-0.9214105,29.0,5,-0.038822312
1.0455829,-15.577523,-0.81822044,24.0,6,-0.038817704
3.5856261,-53.56011,12.393003,8.0,14,-0.0388154
2.3301687,-34.806778,-0.6089145,24.0,7,-0.038813096
2.2725296,-34.034924,9.139936,16.0,15,-0.038810793
0.24761523,-3.7880042,-1.0171589,1.0,0,-0.03879006
0.27120408,-4.171241,-0.9650401,22.0,1,-0.03878545
3.3403518,-51.514973,2.7054553,9.0,9,-0.038783144
0.32444802,-5.003644,-0.9746524,36.0,2,-0.038780842
3.2855728,-50.8074,4.4543557,16.0,10,-0.038778536
0.38304746,-5.9394717,-0.9426742,24.0,3,-0.038776234
3.3706615,-52.407337,6.4481077,12.0,11,-0.038773928
0.4871688,-7.5952363,-0.9344942,37.0,4,-0.038771626
0.6742734,-10.570059,-0.92663985,40.0,5,-0.038767017
3.440551,-53.93484,10.50518,34.0,13,-0.03876471
1.0092043,-15.864119,-0.83308387,33.0,6,-0.03876241
3.1336274,-49.394802,11.426614,6.0,14,-0.038760103
2.2143252,-35.000683,-0.61216056,25.0,7,-0.0387578
2.0903563,-33.132996,8.895611,7.0,15,-0.0387555
0.23182619,-3.7580357,-1.0088767,1.0,0,-0.03873476
2.244171,-36.3793,0.63621,27.0,8,-0.038732458
0.25783893,-4.1916127,-0.9695391,23.0,1,-0.038730152
3.1570916,-51.4705,2.7025244,18.0,9,-0.03872785
0.3070653,-5.020476,-0.9777053,31.0,2,-0.038725544
2.2146745,-36.31356,3.1829276,7.0,10,-0.03872324
0.36319473,-5.972383,-0.94768006,28.0,3,-0.038720936
2.191091,-36.030357,4.4321446,17.0,11,-0.038718633
0.46209508,-7.6206684,-0.93741906,46.0,4,-0.038716327
0.64060986,-10.626046,-0.9313463,43.0,5,-0.03871172
0.9450795,-15.768026,-0.8278502,22.0,6,-0.038707115
2.9567437,-49.475986,11.442811,18.0,14,-0.03870481
2.0963068,-35.078064,-0.6133823,33.0,7,-0.038702507
1.9696348,-33.05524,8.872835,15.0,15,-0.0387002
0.22207358,-3.8166795,-1.0244058,1.0,0,-0.038679466
2.1155708,-36.469128,0.63764113,36.0,8,-0.03867716
0.24506202,-4.237276,-0.97988683,27.0,1,-0.038674857
2.1150544,-36.570618,1.9197878,18.0,9,-0.03867255
0.29168642,-5.0587573,-0.9849561,28.0,2,-0.03867025
2.088817,-36.336987,3.1843224,31.0,10,-0.038667943
0.3476562,-6.066305,-0.96238494,22.0,3,-0.03866564
2.0570934,-36.00446,4.4280014,23.0,11,-0.03866334
0.43461224,-7.630238,-0.938394,43.0,4,-0.038661033
2.0812082,-36.53858,5.796523,6.0,12,-0.03865873
0.59989923,-10.564563,-0.9257683,40.0,5,-0.038656425
0.90927595,-16.112217,-0.8457491,28.0,6,-0.038651817
2.1023047,-37.368416,8.6408205,10.0,14,-0.038649514
1.98295,-35.246887,-0.61620957,25.0,7,-0.03864721
1.9939711,-36.463963,0.6374317,40.0,8,-0.038621865
0.23376685,-4.288657,-0.9915842,32.0,1,-0.038619563
1.9811004,-36.46211,1.9137168,40.0,9,-0.038617257
0.27222124,-5.026418,-0.9784686,27.0,2,-0.038614955
2.6491017,-49.072826,4.2995667,15.0,10,-0.03861265
0.32764468,-6.0693974,-0.9626978,26.0,3,-0.038610347
1.9370453,-35.999184,4.426539,35.0,11,-0.03860804
0.41185826,-7.6792107,-0.9442437,43.0,4,-0.03860574
1.9536554,-36.545624,5.796523,6.0,12,-0.038603432
0.5666237,-10.634237,-0.93169487,43.0,5,-0.03860113
1.8424624,-34.57883,6.7309785,12.0,13,-0.038598824
0.86537313,-16.294643,-0.8551696,33.0,6,-0.038596522
1.8522915,-34.993256,8.090139,29.0,14,-0.038594216
1.8671762,-35.391384,-0.618618,34.0,7,-0.038591914
1.8661592,-36.460712,0.63725716,4.0,8,-0.03856657
0.2160155,-4.2349534,-0.978987,32.0,1,-0.038564265
1.8626174,-36.51635,1.9162289,40.0,9,-0.038561963
0.2563493,-5.042979,-0.9815215,27.0,2,-0.038559657
1.8417324,-36.35633,3.1848452,23.0,10,-0.038557354
0.31113735,-6.1632285,-0.9774026,44.0,3,-0.03855505
1.8227468,-36.231747,4.454325,12.0,11,-0.038552746
0.3884304,-7.74801,-0.95253086,43.0,4,-0.03855044
1.8071336,-36.04684,5.716429,18.0,12,-0.038548138
0.52668345,-10.542533,-0.92350227,35.0,5,-0.038545832
1.7334576,-34.82035,6.776773,12.0,13,-0.03854353
0.81373525,-16.40329,-0.86071724,26.0,6,-0.038541224
1.7279214,-34.954742,8.079792,9.0,14,-0.03853892
1.7490125,-35.381405,-0.61833876,25.0,7,-0.038536616
1.6169833,-32.82679,8.806577,15.0,15,-0.038534313
0.20401303,-4.27847,-0.98888487,32.0,1,-0.03850897
1.7314471,-36.444824,1.9121468,31.0,9,-0.038506664
0.24032173,-5.0771813,-0.9880091,31.0,2,-0.038504362
1.7170695,-36.410297,3.1890285,39.0,10,-0.038502056
0.29265225,-6.205663,-0.9839729,40.0,3,-0.038499754
1.6990418,-36.16224,4.445063,6.0,11,-0.038497448
0.36338437,-7.7631364,-0.95423704,41.0,4,-0.038495146
1.6860794,-36.155537,5.732698,18.0,12,-0.03849284
0.49450284,-10.643819,-0.9322178,41.0,5,-0.038490538
1.6008532,-34.457214,6.7050285,24.0,13,-0.03848823
0.7811278,-16.876747,-0.8854198,28.0,6,-0.03848593
1.6402707,-35.573483,8.221511,10.0,14,-0.038483623
1.638251,-35.664955,-0.6231905,8.0,7,-0.03848132
1.7164489,-37.510147,10.061332,9.0,15,-0.038479015
0.1888443,-4.2908697,-0.9915842,32.0,1,-0.03846566
1.5903357,-36.279327,1.903145,36.0,9,-0.038463358
0.22208218,-5.066221,-0.9857193,33.0,2,-0.038461052
1.5944773,-36.51958,3.1980927,32.0,10,-0.03845875
0.2700769,-6.2106414,-0.98459864,40.0,3,-0.038456444
1.5723339,-36.30308,4.461637,12.0,11,-0.03845414
0.33390188,-7.7406173,-0.9513122,45.0,4,-0.038451836
1.5569425,-36.240417,5.745213,36.0,12,-0.038449533
0.45879948,-10.679319,-0.9351811,37.0,5,-0.038447227
1.5304476,-35.76918,6.9591856,25.0,13,-0.038444925
0.7190959,-16.875507,-0.8852105,33.0,6,-0.03844262
1.5000436,-35.347565,8.167973,6.0,14,-0.038440317
1.5176489,-35.910473,-0.6273791,8.0,7,-0.03843801
0.17118296,-4.2253003,-0.97628754,32.0,1,-0.038410366
1.4649788,-36.31658,1.9048196,31.0,9,-0.03840806
0.20708737,-5.1336617,-0.9986943,33.0,2,-0.038405757
1.4628358,-36.4214,3.1890285,23.0,10,-0.03840345
0.24902737,-6.227337,-0.9871016,40.0,3,-0.03840115
1.4345413,-36.03066,4.4275136,11.0,11,-0.038398843
0.30365703,-7.6604104,-0.94131887,46.0,4,-0.03839654
1.4335494,-36.32458,5.757728,12.0,12,-0.038394235
0.42175555,-10.686828,-0.935704,41.0,5,-0.038391933
1.413283,-35.970478,6.997348,12.0,13,-0.038389627
0.6598742,-16.86993,-0.88479173,30.0,6,-0.038387325
1.3690687,-35.157856,8.122982,32.0,14,-0.03838502
1.3714807,-35.538937,9.529718,17.0,15,-0.03838041
0.1568653,-4.2375565,-0.978987,30.0,1,-0.038355067
1.3367989,-36.283558,1.9028308,18.0,9,-0.038352765
0.19024977,-5.1637826,-1.0044186,34.0,2,-0.03835046
0.92428845,-25.20671,2.2067833,4.0,10,-0.038348157
0.22649576,-6.206453,-0.98366,36.0,3,-0.03834585
1.3342706,-36.737705,4.5137973,24.0,11,-0.03834355
0.28035688,-7.756646,-0.9530183,43.0,4,-0.038341243
1.3131338,-36.507034,5.7858853,18.0,12,-0.03833894
0.38860258,-10.803719,-0.9458141,37.0,5,-0.038336635
1.2947401,-36.17139,7.0355096,13.0,13,-0.038334332
0.6046797,-16.975924,-0.89023465,33.0,6,-0.038332026
1.2504733,-35.279274,8.149977,26.0,14,-0.038329724
1.2037137,-34.29823,9.195841,16.0,15,-0.038325116
0.14292116,-4.2633977,-0.98483574,31.0,1,-0.038299773
1.2192605,-36.56147,1.9171709,9.0,9,-0.038297467
0.1718315,-5.152642,-1.002129,36.0,2,-0.038295165
1.2133533,-36.57609,3.2017531,24.0,10,-0.03829286
0.2046342,-6.201283,-0.9827214,26.0,3,-0.038290557
1.204269,-36.68857,4.507216,30.0,11,-0.03828825
0.25088245,-7.684168,-0.944,45.0,4,-0.03828595
1.1879996,-36.58247,5.797149,12.0,12,-0.038283646
0.35767803,-11.0141,-0.9641168,43.0,5,-0.03828134
1.1182685,-34.621605,6.7332683,24.0,13,-0.038279038
0.5465729,-17.013863,-0.8921188,23.0,6,-0.038276732
1.1349757,-35.522995,8.205315,35.0,14,-0.03827443
1.1612082,-36.543987,-0.63819957,9.0,7,-0.038272124
1.0854508,-34.348564,9.208264,16.0,15,-0.03826982
0.12856509,-4.2814016,-0.98888487,27.0,1,-0.038244475
1.1173714,-37.42794,1.9623892,13.0,9,-0.038242172
0.15349212,-5.141436,-0.9998392,37.0,2,-0.038239866
1.0852611,-36.566162,3.200533,24.0,10,-0.038237564
0.1839191,-6.2335515,-0.9877273,32.0,3,-0.038235262
1.0813107,-36.867165,4.5286655,18.0,11,-0.038232956
0.22671911,-7.7762723,-0.955212,45.0,4,-0.038230654
1.0550345,-36.404736,5.768365,18.0,12,-0.038228348
0.32407868,-11.182572,-0.978759,39.0,5,-0.038226046
1.41743,-49.206234,9.56869,29.0,13,-0.03822374
0.48992327,-17.111496,-0.897143,30.0,6,-0.038221437
1.0084748,-35.439083,8.185069,32.0,14,-0.03821913
0.9391653,-33.413635,8.956693,7.0,15,-0.038214523
0.11429129,-4.307149,-0.99473363,25.0,1,-0.03818918
0.67140967,-25.470186,1.3352997,2.0,9,-0.038186878
0.13621725,-5.167454,-1.0048002,36.0,2,-0.038184572
0.9642374,-36.822674,3.2226708,32.0,10,-0.03818227
0.16426462,-6.315119,-1.0005549,38.0,3,-0.038179964
0.94713104,-36.65838,4.5025854,42.0,11,-0.03817766
0.19845383,-7.7333584,-0.9498497,45.0,4,-0.038175356
0.93011063,-36.49311,5.781819,25.0,12,-0.038173053
0.28321308,-11.111933,-0.9724838,39.0,5,-0.038170747
0.9423209,-37.227085,7.23853,13.0,13,-0.038168445
0.4324984,-17.204948,-0.901958,26.0,6,-0.03816614
0.88996583,-35.65084,8.233209,3.0,14,-0.038163837
0.63291323,-25.532267,-0.44580427,5.0,7,-0.03816153
0.85389745,-34.69135,9.298333,8.0,15,-0.03815923
0.0987619,-4.286091,-0.9897846,27.0,1,-0.038133886
0.8629516,-37.736332,1.9781946,4.0,9,-0.03813158
0.11840351,-5.177711,-1.0067083,36.0,2,-0.038129278
0.8345653,-36.77602,3.218313,40.0,10,-0.03812697
0.14190827,-6.3018303,-0.9983649,28.0,3,-0.03812467
0.8264306,-36.986935,4.542558,18.0,11,-0.038122363
0.17246988,-7.7796507,-0.9554557,45.0,4,-0.03812006
0.80546016,-36.620556,5.8015294,25.0,12,-0.038117755
0.24573883,-11.17261,-0.9777131,45.0,5,-0.038115453
0.8092793,-37.088825,7.2110543,13.0,13,-0.038113147
0.3735646,-17.258268,-0.9046795,26.0,6,-0.038110845
0.83027446,-38.669685,8.929657,11.0,14,-0.03810854
0.5431033,-25.502335,-0.4452458,73.0,7,-0.038106237
0.73907816,-34.99155,9.37805,17.0,15,-0.03810393
0.50138974,-25.419186,0.4437798,22.0,8,-0.038080893
0.083648086,-4.2786164,-0.987985,32.0,1,-0.038078588
0.72765696,-37.555405,1.9685649,32.0,9,-0.038076285
0.100404516,-5.1820188,-1.0074716,34.0,2,-0.03807398
0.70725787,-36.834484,3.2231936,24.0,10,-0.038071677
0.11882073,-6.2450113,-0.98929167,24.0,3,-0.03806937
0.69911647,-37.084866,4.554258,6.0,11,-0.03806707
0.14705485,-7.8734884,-0.9669115,41.0,4,-0.038064763
0.67773426,-36.62907,5.802468,12.0,12,-0.03806246
0.20622131,-11.145512,-0.9752727,43.0,5,-0.038060155
0.6689487,-36.498623,7.0958056,13.0,13,-0.038057853
0.3160018,-17.407238,-0.9124251,26.0,6,-0.038055547
0.6794126,-37.789707,8.725851,7.0,14,-0.038053244
0.37569675,-21.101442,-0.3683854,4.0,7,-0.038050942
0.6234036,-35.360912,9.476401,17.0,15,-0.038048636
1.3753594,-84.72594,1.4790915,63.0,8,-0.038025595
0.06927551,-4.3139544,-0.9960832,27.0,1,-0.038023293
0.6001158,-37.78138,1.980288,4.0,9,-0.038020987
0.08203513,-5.164671,-1.0040369,36.0,2,-0.038018685
0.58121556,-36.998093,3.2373128,8.0,10,-0.03801638
0.09748018,-6.275015,-0.9939847,28.0,3,-0.038014077
0.5698481,-37.098984,4.55572,43.0,11,-0.03801177
0.11899745,-7.8362412,-0.9622804,43.0,4,-0.03800947
0.5599207,-37.300785,5.90853,6.0,12,-0.038007163
0.1696472,-11.301553,-0.9888691,43.0,5,-0.03800486
0.5433745,-36.62441,7.1198473,39.0,13,-0.038002558
0.2573157,-17.550026,-0.91985685,28.0,6,-0.038000252
0.54433954,-37.573616,8.675463,14.0,14,-0.03799795
0.5593705,-39.082047,-0.6822495,10.0,7,-0.037995644
0.50013006,-35.374466,9.479507,8.0,15,-0.03799334
1.2500938,-98.11109,1.7126744,63.0,8,-0.0379703
0.054583777,-4.343399,-1.0028318,21.0,1,-0.037967995
0.31466088,-25.391203,1.3307989,31.0,9,-0.037965693
0.06471193,-5.2218556,-1.0151039,36.0,2,-0.037963387
0.6186542,-50.63479,4.4303007,16.0,10,-0.037961084
0.07555248,-6.2733417,-0.99367183,24.0,3,-0.03795878
0.44123483,-37.176174,4.564982,12.0,11,-0.037956476
0.091551,-7.828669,-0.9613055,39.0,4,-0.037954174
0.4304904,-37.369675,5.919168,6.0,12,-0.037951868
0.13017447,-11.300084,-0.9886947,30.0,5,-0.037949566
0.41586116,-36.655525,7.1255717,13.0,13,-0.03794726
0.1971681,-17.650673,-0.92509043,33.0,6,-0.037944958
0.4013768,-36.501595,8.427567,3.0,14,-0.03794265
0.42562735,-39.331703,-0.6865776,10.0,7,-0.03794035
0.4074557,-38.269745,10.254929,20.0,15,-0.037938043
0.78138566,-84.46953,1.4744841,63.0,8,-0.037915003
0.039546352,-4.357204,-1.0059811,25.0,1,-0.0379127
0.04667594,-5.2436447,-1.0193018,36.0,2,-0.037908092
0.44200495,-50.648598,4.4313464,16.0,10,-0.03790579
0.053282134,-6.23011,-0.9867887,24.0,3,-0.037903484
0.2140303,-25.547243,3.136917,6.0,11,-0.03790118
0.06425563,-7.832911,-0.96179295,31.0,4,-0.037898876
0.30025974,-37.3986,5.923548,12.0,12,-0.037896574
0.0923589,-11.503686,-1.0064745,37.0,5,-0.037894268
0.28715473,-36.560562,7.106872,26.0,13,-0.037891965
0.13672183,-17.803043,-0.9330455,35.0,6,-0.03788966
0.2741594,-36.530056,8.433865,10.0,14,-0.037887357
0.27467215,-38.382977,10.284952,10.0,15,-0.03788275
0.024346875,-4.3592634,-1.006431,22.0,1,-0.037857406
0.028425505,-5.2535915,-1.0212098,36.0,2,-0.037852798
0.26601794,-50.805237,4.444943,16.0,10,-0.03785049
0.031714465,-6.2658153,-0.9924204,24.0,3,-0.03784819
0.19059536,-39.000645,4.7887344,6.0,11,-0.037845884
0.036978543,-7.846983,-0.96349907,37.0,4,-0.03784358
0.16751072,-36.913483,5.8465824,18.0,12,-0.037841275
0.05092923,-11.223015,-0.9818966,30.0,5,-0.037838973
0.17418031,-39.91847,7.7594385,15.0,13,-0.037836667
0.0748942,-17.879307,-0.93702304,33.0,6,-0.037834365
0.14631884,-36.448944,8.4149685,31.0,14,-0.03783206
0.13460813,-36.726185,9.840818,9.0,15,-0.03782745
0.009081476,-4.3359375,-1.0010322,24.0,1,-0.037802108
0.048489563,-25.257294,1.3236811,5.0,9,-0.037799805
0.010112486,-5.267402,-1.0238811,28.0,2,-0.0377975
0.04428708,-25.375034,2.220031,39.0,10,-0.037795197
0.00990513,-6.3053946,-0.99867773,24.0,3,-0.03779289
0.05416444,-38.792637,4.763142,13.0,11,-0.03779059
0.009674326,-7.918527,-0.9722737,33.0,4,-0.037788283
0.038543034,-36.80125,5.8287487,12.0,12,-0.03778598
0.012127826,-11.5797615,-1.0130984,43.0,5,-0.037783675
0.012519072,-17.931389,-0.93974453,30.0,6,-0.037779067
0.01907387,-36.433643,8.41137,35.0,14,-0.037776764
0.0064103343,-36.714844,9.837712,18.0,15,-0.037772156
-0.006086077,-4.3593273,-1.006431,22.0,1,-0.037746813
-0.12635009,-80.439514,4.2156615,52.0,9,-0.037744507
-0.008224418,-5.235993,-1.0177752,22.0,2,-0.037742205
-0.08869773,-50.821793,4.446337,16.0,10,-0.0377399
-0.012223362,-6.366627,-1.0083766,34.0,3,-0.037737597
-0.05361384,-25.599695,3.1432545,6.0,11,-0.03773529
-0.018438732,-8.126947,-0.99786633,41.0,4,-0.03773299
-0.09003397,-36.846596,5.835945,6.0,12,-0.037730683
-0.028319204,-11.589696,-1.0139699,43.0,5,-0.03772838
-0.13152213,-50.237545,9.7652235,30.0,13,-0.037726074
-0.05041737,-18.055151,-0.9462341,30.0,6,-0.037723772
-0.14733087,-49.655632,11.463956,19.0,14,-0.03772147
-0.120891005,-36.455772,9.768349,9.0,15,-0.03771686
-0.02137024,-4.3729215,-1.0095804,22.0,1,-0.037691515
-0.02672015,-5.2791233,-1.0261708,27.0,2,-0.037686907
-0.2672264,-51.03635,4.4651628,17.0,10,-0.037684605
-0.034767017,-6.4258065,-1.0177628,29.0,3,-0.0376823
-0.20458253,-36.630337,4.49771,6.0,11,-0.037679996
-0.047058713,-8.170505,-1.0032285,50.0,4,-0.03767769
-0.21789846,-36.719635,5.8159213,6.0,12,-0.03767539
-0.0685844,-11.557649,-1.0111809,41.0,5,-0.037673086
-0.32053232,-52.47092,10.199505,32.0,13,-0.03767078
-0.11436006,-18.200665,-0.9538753,25.0,6,-0.037668478
-0.31903255,-49.40343,11.405918,25.0,14,-0.03766617
-0.263557,-38.719208,10.375021,10.0,15,-0.037661564
-0.03736869,-4.46051,-1.0298259,24.0,1,-0.03763622
-0.045114134,-5.275071,-1.0254076,28.0,2,-0.037631612
-0.44626307,-51.136715,4.474053,34.0,10,-0.03762931
-0.057759117,-6.488856,-1.0277746,29.0,3,-0.037627004
-0.33316666,-36.7088,4.5074596,6.0,11,-0.0376247
-0.07655224,-8.2754965,-1.0161467,48.0,4,-0.037622396
-0.34488648,-36.59223,5.795898,18.0,12,-0.037620094
-0.10911718,-11.577262,-1.0129241,45.0,5,-0.037617788
-0.17761657,-18.172192,-0.9524098,27.0,6,-0.03761318
-0.38100407,-38.296696,8.841927,7.0,14,-0.037610877
-0.32160825,-31.769533,-0.55456764,6.0,7,-0.03760857
-0.39834908,-38.683285,10.365704,10.0,15,-0.03760627
-0.9295051,-79.48447,1.3875012,62.0,8,-0.03758323
-0.052314762,-4.40774,-1.0176786,21.0,1,-0.037580926
-0.06336132,-5.2611403,-1.0227362,30.0,2,-0.037576318
-0.6239042,-51.06512,4.4679523,17.0,10,-0.03757401
-0.08031213,-6.480714,-1.0265231,34.0,3,-0.03757171
-0.46235102,-36.790783,4.5176973,18.0,11,-0.037569404
-0.104493566,-8.314895,-1.0210215,48.0,4,-0.0375671
-0.14975922,-11.59474,-1.0144928,30.0,5,-0.037562493
-0.24290323,-18.311258,-0.9597369,30.0,6,-0.037557885
-0.5267611,-39.709885,9.168555,8.0,14,-0.03755558
-0.47683102,-31.765585,0.55453277,3.0,8,-0.037527934
-0.06681235,-4.3997483,-1.0158789,19.0,1,-0.037525628
-0.08150124,-5.3060503,-1.0315135,22.0,2,-0.03752102
-0.7915077,-50.951206,4.4581904,16.0,10,-0.037518717
-0.101492494,-6.4606605,-1.0233943,38.0,3,-0.03751641
-0.5827717,-36.689804,4.50551,6.0,11,-0.03751411
-0.13175024,-8.294655,-1.0185841,50.0,4,-0.037511803
-0.65156525,-40.574936,6.427267,7.0,12,-0.0375095
-0.19506408,-12.01651,-1.0514468,36.0,5,-0.037507195
-0.619257,-37.742413,7.3373694,13.0,13,-0.037504893
-0.3025984,-18.248446,-0.956492,35.0,6,-0.037502587
-0.63631016,-38.37321,8.860372,3.0,14,-0.037500285
-0.6168638,-36.433365,9.76369,27.0,15,-0.037495676
-1.4392691,-78.52885,1.3709563,59.0,8,-0.037472636
-0.083024524,-4.4871807,-1.0361246,18.0,1,-0.037470333
-1.5036154,-80.50546,4.2198486,52.0,9,-0.037468027
-0.09817163,-5.2075887,-1.0124326,30.0,2,-0.037465725
-0.95937043,-50.890533,4.4531355,33.0,10,-0.03746342
-0.1232915,-6.480038,-1.0265231,40.0,3,-0.037461117
-0.9913956,-51.63266,6.3408623,12.0,11,-0.03745881
-0.15943539,-8.228649,-1.0105407,46.0,4,-0.03745651
-0.73388815,-37.538815,5.9467,13.0,12,-0.037454203
-0.24160436,-12.24882,-1.0718412,42.0,5,-0.0374519
-0.7503013,-37.70469,7.3305006,13.0,13,-0.037449595
-0.3683804,-18.351114,-0.961935,45.0,6,-0.037447292
-0.79262644,-39.485214,9.117716,4.0,14,-0.037444986
-1.7622609,-80.12242,1.3988802,63.0,8,-0.03741734
-0.097699,-4.4069676,-1.0176786,22.0,1,-0.037415035
-0.71023417,-31.786434,1.6662723,3.0,9,-0.037412733
-0.12061753,-5.3563633,-1.0414355,30.0,2,-0.037410427
-0.14713018,-6.4834933,-1.0271488,42.0,3,-0.03740582
-1.1690605,-51.122616,6.2787094,23.0,11,-0.037403516
-0.19165078,-8.317314,-1.0215088,48.0,4,-0.03740121
-0.8602831,-37.05401,5.8703604,6.0,12,-0.03739891
-0.2873824,-12.285698,-1.0751532,44.0,5,-0.037396602
-0.8970902,-38.06675,7.401481,14.0,13,-0.0373943
-0.4387671,-18.481424,-0.96884334,42.0,6,-0.037391998
-0.9343823,-39.35736,9.0889225,16.0,14,-0.037389692
-0.8742515,-36.290897,9.726937,18.0,15,-0.037385084
-0.11520971,-4.459178,-1.0298259,20.0,1,-0.03735974
-0.14043659,-5.3990865,-1.0498312,29.0,2,-0.037355132
-0.1709966,-6.4868593,-1.0277746,42.0,3,-0.037350524
-1.3734353,-51.758945,6.357437,12.0,11,-0.037348222
-0.22084068,-8.322548,-1.0222402,46.0,4,-0.037345916
-0.95881945,-35.89757,5.687645,6.0,12,-0.037343614
-0.3293558,-12.250761,-1.0721899,46.0,5,-0.037341308
-0.50642854,-18.595575,-0.97491425,40.0,6,-0.0373367
-1.0794483,-39.636322,9.154158,8.0,14,-0.037334397
-0.13084832,-4.487991,-1.0365745,22.0,1,-0.037304446
-0.15707442,-5.355418,-1.0414355,30.0,2,-0.037299838
-1.5873156,-53.799,4.7088504,18.0,10,-0.037297532
-0.19297592,-6.5020533,-1.0302775,34.0,3,-0.03729523
-1.5138508,-50.70843,6.2289867,23.0,11,-0.037292924
-0.24873453,-8.331692,-1.0234588,45.0,4,-0.03729062
-1.0776191,-35.8863,5.6863937,6.0,12,-0.037288316
