x,y,z,intensity,ring,time
2.5014594,-1.0223548,-0.42800474,40.0,3,-0.07487865
8.2132435,-3.3584533,1.089512,22.0,11,-0.074876346
2.7303982,-1.1164789,-0.36219573,38.0,4,-0.074874036
11.556629,-4.7279415,1.9776447,3.0,12,-0.074871734
2.9760637,-1.2181461,-0.28133872,36.0,5,-0.07486943
24.407053,-9.995135,5.1266565,8.0,13,-0.07486713
3.2915518,-1.3486216,-0.1864207,26.0,6,-0.07486482
40.331524,-16.524717,10.0625105,19.0,14,-0.07486252
3.6746364,-1.506329,-0.069320954,28.0,7,-0.074860215
42.491096,-17.426868,12.305811,16.0,15,-0.07485791
1.9436806,-0.79993695,-0.5631903,45.0,0,-0.07483718
4.278763,-1.7618318,0.08076974,37.0,8,-0.07483487
2.0685003,-0.852152,-0.5164876,53.0,1,-0.074832566
4.946929,-2.038977,0.28041607,36.0,9,-0.074830264
2.2525628,-0.9284394,-0.47358796,52.0,2,-0.07482796
6.126237,-2.5263035,0.57976,30.0,10,-0.07482565
2.4944034,-1.0291376,-0.427379,40.0,3,-0.07482335
8.352524,-3.4477794,1.1094985,29.0,11,-0.07482105
2.7448318,-1.1335804,-0.3646331,41.0,4,-0.074818745
12.087756,-4.9945583,2.0715053,5.0,12,-0.074816436
2.9941044,-1.2371385,-0.28343046,35.0,5,-0.07481413
24.479002,-10.119519,5.1487904,8.0,13,-0.07481183
3.2870615,-1.3595294,-0.1864207,39.0,6,-0.07480953
40.523888,-16.768972,10.125047,14.0,14,-0.07480722
3.6915276,-1.5283259,-0.06973982,32.0,7,-0.07480492
1.9373085,-0.80523384,-0.562155,46.0,0,-0.07478188
4.3298254,-1.8005593,0.08185178,46.0,8,-0.07477958
2.087104,-0.86835027,-0.52188647,59.0,1,-0.07477727
4.8697133,-2.027066,0.27643853,37.0,9,-0.074774966
2.2638083,-0.9423324,-0.4766409,46.0,2,-0.07477266
6.0971494,-2.5392468,0.57784253,40.0,10,-0.07477036
2.5053833,-1.0439166,-0.42988196,40.0,3,-0.07476805
8.294631,-3.4578183,1.1034052,33.0,11,-0.07476575
2.7628438,-1.1523246,-0.36755794,36.0,4,-0.07476345
12.25255,-5.1127944,2.1027923,2.0,12,-0.074761145
2.9750578,-1.2414442,-0.28203598,45.0,5,-0.074758835
25.324018,-10.572499,5.3342566,8.0,13,-0.07475653
3.2859817,-1.3725348,-0.18663004,29.0,6,-0.07475423
40.218773,-16.807384,10.063411,14.0,14,-0.07475193
3.6345122,-1.519604,-0.06876248,22.0,7,-0.074749626
41.741066,-17.460665,12.123602,32.0,15,-0.07474732
1.9291421,-0.8097483,-0.56060207,49.0,0,-0.07472658
4.305077,-1.8079196,0.081502736,42.0,8,-0.07472428
2.0696874,-0.8695914,-0.51828724,49.0,1,-0.07472198
4.8994317,-2.0595315,0.27853197,35.0,9,-0.07471967
2.260505,-0.9502288,-0.4766409,44.0,2,-0.074717365
6.097431,-2.5643764,0.57871413,45.0,10,-0.07471506
2.4980824,-1.0511234,-0.42925623,44.0,3,-0.07471276
8.399604,-3.5360446,1.1190044,49.0,11,-0.07471045
2.7661223,-1.1650438,-0.36853293,36.0,4,-0.07470815
12.209144,-5.144793,2.098412,2.0,12,-0.07470585
3.001919,-1.2649742,-0.28499928,45.0,5,-0.074703544
25.590883,-10.788963,5.3983684,17.0,13,-0.07470124
3.2609277,-1.375458,-0.18547864,27.0,6,-0.07469893
40.188583,-16.959793,10.070609,19.0,14,-0.07469663
3.730508,-1.5750611,-0.07068225,45.0,7,-0.07469433
42.925575,-18.132473,12.485949,17.0,15,-0.074692026
1.9351972,-0.82024693,-0.5631903,46.0,0,-0.07467128
4.2656016,-1.8088834,0.08087445,42.0,8,-0.07466898
2.0594635,-0.8737662,-0.5164876,54.0,1,-0.07466668
4.8591204,-2.0625741,0.2766479,37.0,9,-0.07466438
2.2662103,-0.96194917,-0.478549,50.0,2,-0.074662074
6.1672993,-2.6191337,0.58620954,35.0,10,-0.074659765
2.4907622,-1.0582919,-0.4286305,39.0,3,-0.07465746
8.319615,-3.536609,1.1099861,33.0,11,-0.07465516
2.7583854,-1.1731384,-0.36804545,38.0,4,-0.07465286
11.783953,-5.014132,2.0283296,1.0,12,-0.07465055
3.026818,-1.2879264,-0.28778824,47.0,5,-0.074648246
25.21708,-10.735193,5.3273873,8.0,13,-0.074645944
3.2763195,-1.3954415,-0.18663004,28.0,6,-0.07464364
49.17182,-20.953274,12.339915,31.0,14,-0.07464133
3.6863577,-1.5716046,-0.06994925,31.0,7,-0.07463903
42.748295,-18.233694,12.45282,17.0,15,-0.07463673
1.9394262,-0.83003736,-0.56526077,45.0,0,-0.07461599
4.3070564,-1.8442274,0.081781976,36.0,8,-0.07461369
2.0581923,-0.8817171,-0.5169375,58.0,1,-0.07461138
4.8243546,-2.0677211,0.2750778,39.0,9,-0.07460908
2.257425,-0.96753365,-0.47740412,46.0,2,-0.074606776
6.1984043,-2.6579201,0.5900444,42.0,10,-0.074604474
2.4543762,-1.0529612,-0.42299888,40.0,3,-0.074602164
8.361943,-3.5891173,1.1172982,42.0,11,-0.07459986
2.7488015,-1.18041,-0.36731425,39.0,4,-0.07459756
11.588512,-4.9788175,1.9976684,1.0,12,-0.07459526
3.0314572,-1.3024168,-0.2886598,49.0,5,-0.07459295
25.341782,-10.892929,5.361733,8.0,13,-0.074590646
3.3172982,-1.4265956,-0.18924683,27.0,6,-0.07458834
41.08776,-17.678185,10.326603,10.0,14,-0.07458604
3.7947273,-1.6334827,-0.07211334,31.0,7,-0.07458373
1.9311972,-0.8345034,-0.56370795,47.0,0,-0.074560694
4.217995,-1.8235414,0.08021126,36.0,8,-0.07455839
2.067622,-0.89431155,-0.5200868,49.0,1,-0.07455609
4.875764,-2.1099312,0.2784273,32.0,9,-0.07455378
2.2450252,-0.9715091,-0.47549605,40.0,2,-0.07455148
6.132408,-2.655001,0.5846407,32.0,10,-0.074549176
2.468812,-1.0693736,-0.42612755,39.0,3,-0.07454687
8.462293,-3.667223,1.13241,47.0,11,-0.074544564
2.784732,-1.20737,-0.3726765,48.0,4,-0.07454226
13.7910385,-5.9822097,2.3809328,14.0,12,-0.07453996
2.972057,-1.2892044,-0.28343046,41.0,5,-0.07453766
25.797071,-11.195477,5.466296,9.0,13,-0.07453535
3.3159623,-1.4397572,-0.18945618,29.0,6,-0.074533045
41.049038,-17.831594,10.332452,25.0,14,-0.07453074
3.748655,-1.6291837,-0.07134544,31.0,7,-0.07452844
39.61174,-17.223677,11.573871,14.0,15,-0.07452613
1.9229603,-0.8389219,-0.562155,46.0,0,-0.074505396
4.290411,-1.8726513,0.081712164,42.0,8,-0.074503094
2.0591302,-0.89918387,-0.5187371,48.0,1,-0.07450079
4.96941,-2.170049,0.28418428,35.0,9,-0.07449849
2.2524147,-0.9840558,-0.47778577,42.0,2,-0.07449618
6.126755,-2.6779869,0.5849893,30.0,10,-0.07449388
2.4686837,-1.0795678,-0.42675328,39.0,3,-0.074491575
8.445803,-3.695148,1.1319225,33.0,11,-0.07448927
2.773439,-1.2134154,-0.37170154,39.0,4,-0.07448696
12.158765,-5.322145,2.1021667,2.0,12,-0.07448466
3.0387163,-1.3307416,-0.2902286,44.0,5,-0.07448236
25.779411,-11.294912,5.4708757,9.0,13,-0.07448006
3.3694518,-1.4769822,-0.1928057,33.0,6,-0.07447775
40.800488,-17.88469,10.284762,25.0,14,-0.074475445
3.7029426,-1.6239367,-0.07057753,31.0,7,-0.07447314
1.9183996,-0.8445157,-0.56163734,48.0,0,-0.074450105
4.326269,-1.9054066,0.08251498,45.0,8,-0.074447796
2.0650537,-0.9099362,-0.5209867,50.0,1,-0.07444549
5.0773306,-2.2372527,0.2907786,43.0,9,-0.07444319
2.2150066,-0.9764725,-0.470535,38.0,2,-0.07444089
6.1962276,-2.732862,0.5924847,40.0,10,-0.07443858
2.4614758,-1.0861534,-0.42612755,39.0,3,-0.07443628
8.4135275,-3.7143164,1.1292415,31.0,11,-0.074433975
2.7766635,-1.2258124,-0.3726765,48.0,4,-0.07443167
13.024657,-5.752707,2.2551594,16.0,12,-0.07442936
3.0379314,-1.3424215,-0.29057723,43.0,5,-0.07442706
26.10812,-11.542279,5.548726,9.0,13,-0.07442476
3.2604213,-1.4420974,-0.18683939,25.0,6,-0.07442246
40.500366,-17.913473,10.224025,10.0,14,-0.074420154
3.7560544,-1.6621016,-0.071694486,32.0,7,-0.074417844
39.82521,-17.631474,11.670152,14.0,15,-0.07441554
1.9261818,-0.855578,-0.5647432,48.0,0,-0.07439481
4.2084565,-1.8702062,0.08038579,42.0,8,-0.074392505
2.0335338,-0.9041121,-0.5137882,49.0,1,-0.074390195
5.0658402,-2.2533388,0.29056925,35.0,9,-0.07438789
2.2476325,-0.99977046,-0.47816736,38.0,2,-0.07438559
6.2235365,-2.7695956,0.5959709,35.0,10,-0.07438329
2.4650788,-1.0975238,-0.427379,44.0,3,-0.07438098
8.45919,-3.7680433,1.1370411,44.0,11,-0.07437868
2.783247,-1.2403455,-0.37413892,42.0,4,-0.074376374
13.856069,-6.177814,2.4028337,17.0,12,-0.07437407
3.0571194,-1.3630357,-0.29284328,39.0,5,-0.07437177
27.364222,-12.206233,5.824254,10.0,13,-0.07436946
3.3741732,-1.5058082,-0.19364306,33.0,6,-0.07436716
40.73297,-18.18662,10.298709,10.0,14,-0.074364856
3.7830944,-1.6898832,-0.07232277,30.0,7,-0.07436255
39.81986,-17.795605,11.686716,14.0,15,-0.074360244
1.9267088,-0.8638771,-0.56577843,43.0,0,-0.07433951
4.2803574,-1.9200782,0.081886694,37.0,8,-0.07433721
2.0605898,-0.9247693,-0.5214365,47.0,1,-0.074334905
5.0215034,-2.2546465,0.2884758,40.0,9,-0.0743326
2.244129,-1.0076101,-0.47816736,38.0,2,-0.07433029
6.226553,-2.7970176,0.59719115,47.0,10,-0.07432799
2.473845,-1.1117901,-0.42956907,35.0,3,-0.07432569
8.4351225,-3.7926638,1.1355786,40.0,11,-0.074323386
2.7698486,-1.2459817,-0.37292022,43.0,4,-0.074321076
13.315628,-5.9926624,2.3127275,12.0,12,-0.074318774
3.0378077,-1.3671571,-0.2914488,41.0,5,-0.07431647
27.403793,-12.338756,5.8418083,20.0,13,-0.07431417
3.266919,-1.4716395,-0.18778142,41.0,6,-0.07431186
40.756294,-18.36793,10.320754,20.0,14,-0.07430956
3.7771726,-1.7030783,-0.07232277,31.0,7,-0.074307255
1.9184017,-0.8682078,-0.56422555,45.0,0,-0.07428422
4.286381,-1.9407815,0.08213103,31.0,8,-0.07428191
2.0697749,-0.93758506,-0.52458584,54.0,1,-0.07427961
5.026337,-2.2779324,0.28920853,42.0,9,-0.074277304
2.2245045,-1.0081438,-0.47473282,32.0,2,-0.074275
6.2040496,-2.8129764,0.5959709,35.0,10,-0.07427269
2.4699492,-1.1204187,-0.42956907,41.0,3,-0.07427039
8.391103,-3.8081386,1.131435,38.0,11,-0.07426809
2.7672896,-1.2564632,-0.37316394,44.0,4,-0.074265786
14.132737,-6.419819,2.4585242,27.0,12,-0.074263476
3.040273,-1.3810489,-0.29214606,38.0,5,-0.07426117
27.464222,-12.481449,5.8639426,10.0,13,-0.07425887
3.3726695,-1.5334609,-0.19416642,33.0,6,-0.07425657
56.39043,-25.65107,14.302388,12.0,14,-0.07425426
3.7384434,-1.7013433,-0.071694486,33.0,7,-0.07425196
39.9408,-18.185234,11.759185,14.0,15,-0.074249655
1.9118452,-0.8732937,-0.5631903,45.0,0,-0.07422892
4.248661,-1.9416022,0.08153765,33.0,8,-0.07422662
2.0647173,-0.94399405,-0.52413595,51.0,1,-0.07422431
5.016538,-2.2946327,0.28910384,42.0,9,-0.074222006
2.2263277,-1.0183525,-0.47587767,35.0,2,-0.0742197
6.1887574,-2.832128,0.595448,32.0,10,-0.0742174
2.4660232,-1.1290336,-0.42956907,35.0,3,-0.07421509
8.343468,-3.821699,1.126804,36.0,11,-0.07421279
2.7664964,-1.2677692,-0.37365144,45.0,4,-0.07421049
13.318359,-6.1060576,2.320549,4.0,12,-0.074208185
3.020945,-1.3850102,-0.29075155,43.0,5,-0.074205875
27.463314,-12.596886,5.873101,10.0,13,-0.07420357
3.274718,-1.5027411,-0.18882816,23.0,6,-0.07420127
32.303307,-14.830547,8.206215,22.0,14,-0.07419897
3.7324817,-1.7143825,-0.071694486,31.0,7,-0.07419667
39.683983,-18.235813,11.702245,14.0,15,-0.07419436
1.9105395,-0.8807708,-0.56370795,44.0,0,-0.07429147
4.238226,-1.9547459,0.08146784,33.0,8,-0.074289165
2.0578709,-0.94956255,-0.52323616,51.0,1,-0.07428686
5.039325,-2.3263607,0.29088327,38.0,9,-0.07428455
2.2708867,-1.0483351,-0.48618135,39.0,2,-0.07428225
6.1770253,-2.852878,0.59527373,30.0,10,-0.07427995
2.46924,-1.140949,-0.43082058,37.0,3,-0.07427765
8.485037,-3.9224348,1.1477655,29.0,11,-0.07427534
2.7602527,-1.2765851,-0.3734077,38.0,4,-0.074273035
14.254302,-6.5954714,2.487621,27.0,12,-0.07427073
3.0197082,-1.3972203,-0.29110017,48.0,5,-0.07426843
27.686419,-12.816384,5.930344,10.0,13,-0.07426612
3.336509,-1.5452183,-0.19270101,34.0,6,-0.07426382
32.198296,-14.918636,8.192718,39.0,14,-0.07426152
3.7663884,-1.7459028,-0.072462395,30.0,7,-0.074259214
39.630604,-18.3791,11.705351,14.0,15,-0.074256904
1.9214656,-0.8939535,-0.567849,47.0,0,-0.07423617
4.2331896,-1.970372,0.081502736,34.0,8,-0.07423387
2.0368776,-0.94851345,-0.5187371,43.0,1,-0.074231565
5.018501,-2.338033,0.29015055,42.0,9,-0.07422926
2.2743318,-1.0595719,-0.48770785,42.0,2,-0.07422695
6.1905055,-2.8853645,0.5975398,17.0,10,-0.07422465
2.434807,-1.1353693,-0.4255018,34.0,3,-0.07422235
8.518067,-3.97385,1.1541028,27.0,11,-0.07422005
2.7503831,-1.2836937,-0.3726765,34.0,4,-0.07421774
13.903648,-6.4922423,2.4303663,17.0,12,-0.074215434
3.0075917,-1.4043807,-0.29040295,51.0,5,-0.07421313
28.609146,-13.364987,6.137944,10.0,13,-0.07421083
3.2930973,-1.5390965,-0.1905029,27.0,6,-0.07420852
32.15485,-15.035067,8.194966,35.0,14,-0.07420622
3.7711384,-1.764123,-0.072671816,30.0,7,-0.074203916
31.935719,-14.946192,9.44793,34.0,15,-0.07420161
1.921831,-0.9022974,-0.5688843,48.0,0,-0.07418088
4.219046,-1.9817357,0.08136312,36.0,8,-0.07417857
2.065301,-0.97053635,-0.5268353,65.0,1,-0.07417627
5.0193467,-2.3597853,0.29067394,40.0,9,-0.074173965
2.2777262,-1.0708455,-0.4892343,41.0,2,-0.07417166
6.29398,-2.9603803,0.6085214,35.0,10,-0.07416935
2.4755137,-1.1648883,-0.43332353,37.0,3,-0.07416705
8.540064,-4.0204697,1.1589775,31.0,11,-0.07416475
2.7494771,-1.2949781,-0.37316394,30.0,4,-0.074162446
14.402687,-6.786603,2.521724,20.0,12,-0.07416014
3.006276,-1.4165691,-0.29075155,50.0,5,-0.074157834
28.718588,-13.538438,6.1715264,10.0,13,-0.07415553
3.35093,-1.5804013,-0.19416642,26.0,6,-0.07415323
32.183243,-15.185469,8.215663,6.0,14,-0.07415093
3.736024,-1.7636176,-0.07211334,32.0,7,-0.07414862
31.87287,-15.052627,9.444824,25.0,15,-0.074146315
1.9099405,-0.9048648,-0.5662961,50.0,0,-0.07412558
4.2482424,-2.0135806,0.082061216,37.0,8,-0.07412328
2.0654223,-0.97940964,-0.5277352,67.0,1,-0.07412097
5.0724316,-2.406398,0.2942328,42.0,9,-0.07411867
2.2615578,-1.0728993,-0.48656297,38.0,2,-0.074116364
6.265608,-2.9737895,0.60677826,25.0,10,-0.07411406
2.4928453,-1.18369,-0.43707794,42.0,3,-0.07411175
8.5367365,-4.0553665,1.16044,46.0,11,-0.07410945
2.7521117,-1.3079762,-0.37413892,39.0,4,-0.07410715
14.237974,-6.769825,2.4970071,23.0,12,-0.074104846
2.9959147,-1.4244876,-0.2902286,48.0,5,-0.07410254
3.3796587,-1.6083956,-0.19615518,31.0,6,-0.07409793
3.6973493,-1.7611692,-0.07148506,32.0,7,-0.07409333
31.84978,-15.17792,9.453625,8.0,15,-0.07409102
1.9259425,-0.9206914,-0.5719901,48.0,0,-0.07407028
4.2087164,-2.0128675,0.08143293,34.0,8,-0.07406798
2.0514438,-0.9815667,-0.52503574,52.0,1,-0.07406568
5.0225663,-2.4042552,0.29182532,35.0,9,-0.07406337
2.2577991,-1.0807872,-0.48656297,35.0,2,-0.074061066
6.2300324,-2.9835944,0.60433793,27.0,10,-0.07405876
2.4940426,-1.194945,-0.43801656,47.0,3,-0.07405646
8.450926,-4.050819,1.1506904,48.0,11,-0.07405416
2.7457395,-1.3167164,-0.37389517,38.0,4,-0.07405185
14.226723,-6.825465,2.4991972,27.0,12,-0.07404955
2.990924,-1.4349366,-0.2902286,44.0,5,-0.074047245
30.54906,-14.662889,6.5867267,11.0,13,-0.07404494
3.3938284,-1.6296933,-0.19730657,39.0,6,-0.07404263
41.89734,-20.127813,10.731065,5.0,14,-0.07404033
3.7686791,-1.8113132,-0.07298596,26.0,7,-0.07403803
31.361343,-15.079714,9.324215,8.0,15,-0.07403573
1.9383773,-0.93496215,-0.5766489,50.0,0,-0.074014984
4.2322807,-2.0423207,0.08202631,40.0,8,-0.07401268
2.0515146,-0.99041605,-0.52593553,58.0,1,-0.07401038
5.035725,-2.4321964,0.2930814,38.0,9,-0.07400808
2.236334,-1.0801232,-0.4827468,38.0,2,-0.074005775
6.239313,-3.0148582,0.60625535,30.0,10,-0.074003465
2.484521,-1.2010643,-0.43707794,40.0,3,-0.07400116
8.361677,-4.0439935,1.1404535,46.0,11,-0.07399886
2.7572088,-1.3340744,-0.37608883,47.0,4,-0.07399656
14.220592,-6.883691,2.502326,18.0,12,-0.07399425
2.9948635,-1.4497086,-0.29110017,40.0,5,-0.07399195
3.3377917,-1.6171464,-0.19437577,29.0,6,-0.07398734
41.64796,-20.187244,10.685176,5.0,14,-0.07398503
3.7371435,-1.8122418,-0.0724973,28.0,7,-0.07398273
31.298086,-15.184036,9.321109,16.0,15,-0.07398043
1.9281533,-0.9383412,-0.5745783,56.0,0,-0.07395969
4.244903,-2.0667102,0.08241026,48.0,8,-0.07395739
2.042789,-0.9950111,-0.52458584,50.0,1,-0.07395508
5.0509744,-2.4602518,0.29444212,40.0,9,-0.07395278
2.2237258,-1.0836228,-0.48083872,41.0,2,-0.07395048
6.221587,-3.0331268,0.6055581,30.0,10,-0.073948175
2.4625587,-1.2010702,-0.43394926,39.0,3,-0.073945865
8.349295,-4.0740275,1.1406971,44.0,11,-0.07394356
2.7614546,-1.3480446,-0.37730753,53.0,4,-0.07394126
14.593546,-7.124054,2.5720959,22.0,12,-0.07393896
2.9969459,-1.4636512,-0.2917974,34.0,5,-0.07393665
32.100544,-15.684232,6.944684,12.0,13,-0.07393435
3.369808,-1.647207,-0.19657388,25.0,6,-0.073932044
41.255127,-20.174976,10.602393,5.0,14,-0.07392974
3.7436883,-1.8307741,-0.07274163,31.0,7,-0.07392743
31.263182,-15.2953825,9.325768,16.0,15,-0.07392513
1.9335368,-0.94932306,-0.5771665,54.0,0,-0.073904395
4.189561,-2.0569801,0.08146784,39.0,8,-0.07390209
2.0534713,-1.008653,-0.52818507,63.0,1,-0.07389979
5.031601,-2.472583,0.2938141,36.0,9,-0.07389748
2.225215,-1.0939769,-0.48198354,34.0,2,-0.07389518
6.2789,-3.0882404,0.6121819,31.0,10,-0.07389288
2.4709704,-1.2153324,-0.43613935,47.0,3,-0.073890574
8.362455,-4.114838,1.1443533,29.0,11,-0.073888265
2.7373781,-1.3475505,-0.3746264,40.0,4,-0.07388596
14.318719,-7.0518928,2.527981,20.0,12,-0.07388366
2.9989676,-1.477626,-0.29249465,41.0,5,-0.07388136
32.249123,-15.889515,6.9881887,12.0,13,-0.07387905
3.290878,-1.6221675,-0.19228233,32.0,6,-0.073876746
3.767761,-1.8588717,-0.073335014,25.0,7,-0.07387214
31.190544,-15.395011,9.320074,8.0,15,-0.07386984
1.9321094,-0.9565869,-0.57768416,51.0,0,-0.0738491
4.2504487,-2.1053197,0.08279422,39.0,8,-0.073846795
2.063907,-1.0227369,-0.5317843,49.0,1,-0.07384449
4.9245205,-2.44134,0.28805712,36.0,9,-0.07384219
2.2336946,-1.1078439,-0.4846549,39.0,2,-0.07383988
6.3168178,-3.1329474,0.61688834,39.0,10,-0.07383758
2.470252,-1.2257065,-0.43676507,46.0,3,-0.073835276
8.344486,-4.1422386,1.1438658,34.0,11,-0.073832974
2.7326574,-1.3570976,-0.3746264,47.0,4,-0.073830664
14.732744,-7.3198085,2.6055727,18.0,12,-0.07382836
2.97595,-1.4792172,-0.29075155,39.0,5,-0.07382606
32.703976,-16.262861,7.0996213,13.0,13,-0.07382376
3.3743198,-1.6786987,-0.19751592,25.0,6,-0.073821455
41.52162,-20.656694,10.70677,5.0,14,-0.073819146
3.6538365,-1.8185517,-0.07124072,28.0,7,-0.07381684
31.122782,-15.496903,9.315933,16.0,15,-0.07381454
1.9251343,-0.961935,-0.5766489,52.0,0,-0.073793806
4.237338,-2.118202,0.08268951,37.0,8,-0.0737915
2.0531728,-1.026808,-0.5299847,45.0,1,-0.073789194
5.0227094,-2.5129929,0.29433745,36.0,9,-0.07378689
2.2401528,-1.1212959,-0.48694456,33.0,2,-0.07378459
6.372995,-3.189967,0.62351215,34.0,10,-0.07378228
2.4922373,-1.2480193,-0.4414581,40.0,3,-0.07377998
8.570623,-4.2937193,1.1770141,34.0,11,-0.073777676
2.7116935,-1.359099,-0.37243277,48.0,4,-0.07377537
14.396797,-7.21881,2.5508208,9.0,12,-0.07377307
2.991879,-1.5008347,-0.29284328,34.0,5,-0.07377076
32.795055,-16.45835,7.1324406,13.0,13,-0.07376846
3.3270915,-1.6704433,-0.19510846,27.0,6,-0.07376616
41.48395,-20.827978,10.716668,5.0,14,-0.073763855
3.6596553,-1.8382145,-0.07148506,36.0,7,-0.073761545
41.18109,-20.693924,12.349292,16.0,15,-0.07375924
1.9164206,-0.96637505,-0.57509595,49.0,0,-0.07373851
4.195624,-2.1166053,0.08202631,45.0,8,-0.073736206
2.0685325,-1.0439848,-0.53493357,50.0,1,-0.073733896
5.013907,-2.53051,0.29433745,36.0,9,-0.073731594
2.2309675,-1.126454,-0.4857997,38.0,2,-0.07372929
6.364817,-3.2151003,0.6238608,34.0,10,-0.07372699
2.4629638,-1.2446722,-0.43707794,36.0,3,-0.07372469
8.691237,-4.3940687,1.1957821,48.0,11,-0.07372238
2.7332647,-1.3824682,-0.37608883,45.0,4,-0.073720075
15.127721,-7.651507,2.6850417,27.0,12,-0.07371777
2.9972882,-1.5166667,-0.29388916,36.0,5,-0.07371547
33.203327,-16.80859,7.233951,13.0,13,-0.07371316
3.3497488,-1.696485,-0.19678321,27.0,6,-0.07371086
41.793243,-21.175415,10.816546,5.0,14,-0.07370856
3.6888921,-1.8690537,-0.072183155,31.0,7,-0.073706254
40.908726,-20.736227,12.289247,16.0,15,-0.073703945
1.9182016,-0.97568625,-0.5766489,50.0,0,-0.07368321
4.2081876,-2.1404793,0.08241026,36.0,8,-0.07368091
2.0615854,-1.049071,-0.5340338,50.0,1,-0.073678605
4.990804,-2.5407476,0.29350007,36.0,9,-0.0736763
2.2375183,-1.1395807,-0.48808944,38.0,2,-0.07367399
6.4121385,-3.2671478,0.6296131,31.0,10,-0.07367169
2.4412222,-1.2438649,-0.43394926,41.0,3,-0.07366939
8.628867,-4.3985248,1.1892011,44.0,11,-0.07366709
2.7198234,-1.3870151,-0.37487015,44.0,4,-0.07366478
15.037575,-7.6719475,2.6737783,27.0,12,-0.073662475
3.0239189,-1.5434237,-0.29702678,35.0,5,-0.07366017
33.9308,-17.318455,7.404916,14.0,13,-0.07365787
3.372565,-1.7221166,-0.19845797,33.0,6,-0.07365556
42.043846,-21.477898,10.899778,11.0,14,-0.07365326
3.6681004,-1.8746389,-0.07190392,36.0,7,-0.073650956
41.610123,-21.27465,12.522184,17.0,15,-0.073648654
1.9201124,-0.9846865,-0.5782018,49.0,0,-0.07362792
4.207807,-2.1588068,0.08254988,37.0,8,-0.07362561
2.0544436,-1.0544811,-0.533134,50.0,1,-0.07362331
5.051197,-2.593734,0.29758227,37.0,9,-0.073621005
2.2389667,-1.1496848,-0.4892343,41.0,2,-0.0736187
6.4030414,-3.2893033,0.6297874,26.0,10,-0.07361639
2.4632194,-1.2659228,-0.4386423,34.0,3,-0.07361409
8.592277,-4.4177256,1.1862763,53.0,11,-0.07361179
2.6867208,-1.3819728,-0.3709703,50.0,4,-0.073609486
15.08096,-7.7605453,2.686293,40.0,12,-0.07360718
2.9798088,-1.5333866,-0.2931919,38.0,5,-0.073604874
34.145935,-17.578772,7.4652114,14.0,13,-0.07360257
3.3842893,-1.7430234,-0.19950469,29.0,6,-0.07360027
42.115864,-21.700397,10.93802,5.0,14,-0.07359796
3.6366498,-1.8746041,-0.071415246,41.0,7,-0.07359566
41.60772,-21.456957,12.543924,17.0,15,-0.073593356
1.9149476,-0.9904953,-0.57768416,50.0,0,-0.07357262
4.27839,-2.2139187,0.084085695,39.0,8,-0.07357032
2.0611339,-1.0670215,-0.5358334,56.0,1,-0.07356801
4.946342,-2.5617497,0.29193,33.0,9,-0.07356571
2.2314532,-1.1556873,-0.48847106,39.0,2,-0.073563404
6.444591,-3.3391316,0.63501674,26.0,10,-0.0735611
2.4921074,-1.2917857,-0.4445868,41.0,3,-0.07355879
8.606761,-4.4632273,1.1904199,51.0,11,-0.07355649
2.7065496,-1.4041408,-0.37438264,49.0,4,-0.07355419
15.048519,-7.810411,2.6853542,40.0,12,-0.073551886
2.9815118,-1.5474502,-0.29388916,36.0,5,-0.073549576
34.56178,-17.945745,7.5697746,14.0,13,-0.073547274
3.2807024,-1.7041883,-0.19374773,28.0,6,-0.07354497
41.633503,-21.636099,10.8322935,11.0,14,-0.07354267
3.651375,-1.8983562,-0.0718341,38.0,7,-0.07354037
1.8977761,-0.9900256,-0.573543,45.0,0,-0.07351732
4.277727,-2.2325404,0.08422531,35.0,8,-0.07351502
2.057397,-1.0742098,-0.5358334,52.0,1,-0.07351272
4.9360495,-2.5772142,0.29182532,29.0,9,-0.07351041
2.232626,-1.1661965,-0.48961592,37.0,2,-0.073508106
6.439959,-3.3652983,0.63571393,28.0,10,-0.073505804
2.4770792,-1.2949857,-0.4427096,41.0,3,-0.0735035
8.603442,-4.4996824,1.192126,44.0,11,-0.07350119
2.699873,-1.4126596,-0.37413892,46.0,4,-0.07349889
15.071545,-7.885913,2.6941147,42.0,12,-0.07349659
2.984918,-1.5624679,-0.29476073,28.0,5,-0.073494285
34.846767,-18.248436,7.6460986,14.0,13,-0.07349198
3.2941947,-1.7258254,-0.19489913,29.0,6,-0.07348967
41.486958,-21.744205,10.813848,22.0,14,-0.07348737
3.6981947,-1.9383034,-0.07288125,32.0,7,-0.07348507
41.310143,-21.660725,12.498372,17.0,15,-0.07348277
1.9062763,-1.0029405,-0.5771665,44.0,0,-0.073462024
4.2809186,-2.2523003,0.08443475,40.0,8,-0.07345972
2.050374,-1.079211,-0.53493357,58.0,1,-0.07345742
4.934092,-2.5981507,0.292244,28.0,9,-0.07345512
2.2459116,-1.183133,-0.4934321,37.0,2,-0.073452815
6.4334607,-3.3905442,0.6362369,31.0,10,-0.073450506
2.4692764,-1.301351,-0.44208387,37.0,3,-0.0734482
8.813238,-4.646693,1.2233245,38.0,11,-0.0734459
2.6899061,-1.4188266,-0.3734077,37.0,4,-0.0734436
15.126037,-7.981803,2.7088194,40.0,12,-0.07344129
2.9864936,-1.5765984,-0.29545796,30.0,5,-0.07343899
35.879852,-18.941317,7.8865175,16.0,13,-0.073436685
3.3326056,-1.7600579,-0.19751592,28.0,6,-0.07343438
41.554188,-21.9554,10.850289,16.0,14,-0.07343207
3.6984782,-1.9549387,-0.07302087,30.0,7,-0.07342977
41.230865,-21.802988,12.497337,17.0,15,-0.07342747
1.9063535,-1.0110667,-0.5782018,48.0,0,-0.07340673
4.267731,-2.2644176,0.08433003,42.0,8,-0.07340443
2.0569222,-1.0918436,-0.537633,52.0,1,-0.07340212
5.0696383,-2.6921701,0.3008271,35.0,9,-0.07339982
2.2385077,-1.1887325,-0.49266884,37.0,2,-0.07339752
6.453853,-3.4286854,0.63937455,31.0,10,-0.073395215
2.4699514,-1.3127435,-0.44302243,34.0,3,-0.073392905
8.884601,-4.724026,1.2355115,44.0,11,-0.0733906
2.7007103,-1.4365977,-0.37560135,39.0,4,-0.0733883
15.255028,-8.118073,2.7369776,42.0,12,-0.073386
2.9548662,-1.5724535,-0.29284328,38.0,5,-0.07338369
36.0492,-19.191914,7.9384174,16.0,13,-0.07338139
3.303525,-1.7594748,-0.19615518,29.0,6,-0.073379084
41.405064,-22.06183,10.831393,11.0,14,-0.07337678
3.7833931,-2.0167508,-0.07483592,31.0,7,-0.07337447
41.14428,-21.941322,12.494231,17.0,15,-0.07337217
1.9096265,-1.0213594,-0.5802723,48.0,0,-0.073351435
4.2545114,-2.276471,0.08422531,40.0,8,-0.07334913
2.0599706,-1.1026956,-0.5394326,58.0,1,-0.07334683
4.972175,-2.6627061,0.2955935,36.0,9,-0.07334452
2.2343445,-1.1965392,-0.49266884,38.0,2,-0.07334222
6.440089,-3.4502516,0.6392002,31.0,10,-0.07333992
2.4775417,-1.3278894,-0.44521254,39.0,3,-0.073337615
8.801578,-4.719364,1.2262495,38.0,11,-0.073335305
2.7096734,-1.453523,-0.37755126,48.0,4,-0.073333
15.5468645,-8.343143,2.7945457,28.0,12,-0.0733307
2.9107368,-1.5620317,-0.28900844,46.0,5,-0.0733284
36.383286,-19.533081,8.026953,17.0,13,-0.07332609
3.3149583,-1.7804458,-0.1972019,29.0,6,-0.073323786
41.502895,-22.300312,10.877284,11.0,14,-0.073321484
3.7728078,-2.0280514,-0.074766114,31.0,7,-0.07331918
1.9077499,-1.0289361,-0.58079,56.0,0,-0.07329614
4.2764564,-2.3074505,0.08481869,39.0,8,-0.073293835
2.0663984,-1.1154337,-0.542132,58.0,1,-0.07329153
4.9417615,-2.6686575,0.29433745,26.0,9,-0.07328923
2.2387915,-1.2089955,-0.49457693,41.0,2,-0.07328692
6.4139833,-3.4651349,0.6378057,34.0,10,-0.07328462
2.4711535,-1.3355902,-0.44489968,33.0,3,-0.07328232
8.715202,-4.712292,1.2164999,34.0,11,-0.073280014
2.6906152,-1.455417,-0.37560135,45.0,4,-0.073277704
15.5854025,-8.434028,2.8067477,38.0,12,-0.0732754
2.9665961,-1.6053711,-0.29510933,44.0,5,-0.0732731
36.48753,-19.753431,8.065115,17.0,13,-0.0732708
3.3842406,-1.8329066,-0.20170279,26.0,6,-0.07326849
40.912495,-22.167463,10.742763,22.0,14,-0.073266186
3.7868016,-2.0526438,-0.07518496,30.0,7,-0.07326388
1.9075408,-1.037435,-0.58182526,50.0,0,-0.07324085
4.238515,-2.3061173,0.08422531,45.0,8,-0.07323854
2.0642037,-1.1235716,-0.542582,56.0,1,-0.073236234
5.0201197,-2.7336493,0.29957107,41.0,9,-0.07323393
2.2449028,-1.2224363,-0.49686664,52.0,2,-0.07323163
6.410597,-3.4922683,0.6386773,31.0,10,-0.07322932
2.4456623,-1.3328648,-0.44114524,27.0,3,-0.07322702
8.6812725,-4.733183,1.2140626,44.0,11,-0.073224716
2.6942317,-1.469553,-0.37682006,48.0,4,-0.07322241
15.637365,-8.53285,2.8214524,28.0,12,-0.073220104
3.011694,-1.6433927,-0.30016437,35.0,5,-0.0732178
36.621696,-19.991678,8.110146,18.0,13,-0.0732155
3.3760693,-1.8437514,-0.20159812,33.0,6,-0.0732132
40.934055,-22.364334,10.768857,5.0,14,-0.073210895
3.8199713,-2.0879083,-0.07598778,28.0,7,-0.073208585
41.932648,-22.928925,12.805849,18.0,15,-0.07320628
1.9072957,-1.0459452,-0.5828605,46.0,0,-0.07318555
4.277775,-2.3468678,0.08516774,39.0,8,-0.073183246
2.0483105,-1.1242068,-0.5394326,52.0,1,-0.07318094
5.0508127,-2.7732651,0.3019785,37.0,9,-0.073178634
2.2561102,-1.2387693,-0.50030124,44.0,2,-0.07317633
6.410591,-3.5213387,0.63989747,28.0,10,-0.07317403
2.4635005,-1.353761,-0.44521254,39.0,3,-0.07317172
8.642084,-4.751025,1.210894,53.0,11,-0.07316942
2.6699524,-1.4684258,-0.37413892,51.0,4,-0.073167115
15.730366,-8.654994,2.843666,23.0,12,-0.07316481
3.0164125,-1.6596583,-0.30121022,38.0,5,-0.07316251
36.778717,-20.244354,8.16052,18.0,13,-0.0731602
3.366114,-1.8535981,-0.20138879,27.0,6,-0.0731579
3.831925,-2.111847,-0.07637174,31.0,7,-0.073153295
41.64596,-22.961363,12.742697,18.0,15,-0.073150985
1.9103953,-1.0563357,-0.584931,50.0,0,-0.07313025
4.2380605,-2.3443627,0.08453946,39.0,8,-0.07312795
2.0324385,-1.1247448,-0.5362833,46.0,1,-0.073125646
5.037607,-2.788944,0.30176917,43.0,9,-0.07312334
2.258643,-1.2504406,-0.50182766,48.0,2,-0.07312103
6.39826,-3.5436947,0.63989747,26.0,10,-0.07311873
2.4449368,-1.3546928,-0.4427096,35.0,3,-0.07311643
8.62371,-4.7802,1.2106501,27.0,11,-0.07311413
2.6613386,-1.4758112,-0.37365144,51.0,4,-0.07311182
15.90216,-8.821968,2.8802717,19.0,12,-0.073109515
2.989694,-1.6585789,-0.2991185,39.0,5,-0.07310721
36.975616,-20.521235,8.220052,19.0,13,-0.07310491
3.3631153,-1.8672758,-0.20159812,31.0,6,-0.0731026
41.039276,-22.795284,10.838142,22.0,14,-0.0731003
3.8874562,-2.160177,-0.07762831,31.0,7,-0.073098
41.437237,-23.035257,12.703357,17.0,15,-0.073095694
1.913446,-1.0667607,-0.5870016,51.0,0,-0.07307496
4.2071476,-2.3464794,0.084085695,40.0,8,-0.07307265
2.0267982,-1.1308831,-0.5358334,52.0,1,-0.07307035
5.1098075,-2.8522646,0.30668873,37.0,9,-0.073068045
2.2542644,-1.2583171,-0.50182766,48.0,2,-0.07306574
6.54415,-3.6544042,0.65575975,22.0,10,-0.07306343
2.472959,-1.3815237,-0.4486541,47.0,3,-0.07306113
8.754262,-4.8925915,1.231368,31.0,11,-0.07305883
2.6613686,-1.4879984,-0.37438264,43.0,4,-0.07305653
16.05229,-8.978677,2.9131231,21.0,12,-0.07305422
2.996058,-1.6758131,-0.3003387,44.0,5,-0.073051915
37.31152,-20.878347,8.310878,19.0,13,-0.07304961
3.3583195,-1.8799793,-0.20170279,26.0,6,-0.07304731
3.876403,-2.171779,-0.077558495,31.0,7,-0.0730427
41.423985,-23.21754,12.724063,17.0,15,-0.073040396
1.9113946,-1.0743799,-0.5875193,49.0,0,-0.07301966
4.2616796,-2.3964357,0.08534227,37.0,8,-0.07301736
2.0534103,-1.1551492,-0.54393166,52.0,1,-0.07301505
5.122447,-2.8828177,0.30804947,43.0,9,-0.07301275
2.2464364,-1.2642525,-0.5010645,48.0,2,-0.073010445
6.666772,-3.7534678,0.6693561,33.0,10,-0.07300814
2.471564,-1.3920864,-0.44927984,44.0,3,-0.07300583
8.915262,-5.0234923,1.2564731,46.0,11,-0.07300353
2.6734512,-1.507027,-0.37682006,52.0,4,-0.07300123
16.196354,-9.133628,2.9450355,22.0,12,-0.072998926
2.99019,-1.6862612,-0.3003387,44.0,5,-0.07299662
37.405983,-21.102999,8.348276,20.0,13,-0.072994314
3.3778272,-1.9064158,-0.20327288,27.0,6,-0.07299201
42.185776,-23.81899,11.1845665,5.0,14,-0.07298971
3.8862097,-2.1951315,-0.07790754,32.0,7,-0.07298741
41.33932,-23.360098,12.723027,17.0,15,-0.0729851
1.9061404,-1.0797602,-0.5870016,50.0,0,-0.07297206
4.241532,-2.4036534,0.08509794,34.0,8,-0.07296976
2.0326157,-1.1523414,-0.5394326,47.0,1,-0.072967455
5.1580286,-2.9254067,0.31077093,39.0,9,-0.072965145
2.2524776,-1.2775062,-0.50335413,46.0,2,-0.07296284
6.567644,-3.726394,0.66064054,33.0,10,-0.07296054
2.4652162,-1.3992996,-0.44896698,40.0,3,-0.07295824
9.041829,-5.134387,1.2767034,51.0,11,-0.07295593
2.6494527,-1.5050985,-0.37413892,52.0,4,-0.07295363
16.34459,-9.288792,2.9775739,40.0,12,-0.072951324
2.9828498,-1.695183,-0.30016437,48.0,5,-0.07294902
37.506466,-21.32396,8.386437,20.0,13,-0.07294671
3.3732226,-1.9185939,-0.20337754,26.0,6,-0.07294441
3.856317,-2.1951463,-0.07745378,28.0,7,-0.072939806
41.808895,-23.808706,12.891777,18.0,15,-0.072937496
1.9174578,-1.0950296,-0.5916603,49.0,0,-0.07291676
4.247006,-2.4263804,0.08537717,39.0,8,-0.07291446
2.042116,-1.1671654,-0.5430318,48.0,1,-0.07291216
5.1651244,-2.9533079,0.31181765,37.0,9,-0.072909854
2.2258487,-1.2726928,-0.49839315,37.0,2,-0.072907545
6.603021,-3.7769957,0.6655212,33.0,10,-0.07290524
2.4534588,-1.4039719,-0.44771552,42.0,3,-0.07290294
8.865357,-5.075184,1.2542794,44.0,11,-0.07290064
2.6493506,-1.5172974,-0.37487015,48.0,4,-0.07289833
16.4389,-9.418458,3.0007262,32.0,12,-0.072896026
2.9890158,-1.7125182,-0.30138457,47.0,5,-0.072893724
37.360264,-21.413746,8.37041,20.0,13,-0.07289142
3.3526437,-1.9224092,-0.20254017,36.0,6,-0.07288911
46.769238,-26.828373,12.447891,8.0,14,-0.07288681
3.9023972,-2.2394485,-0.078535825,33.0,7,-0.07288451
41.35025,-23.73905,12.775826,18.0,15,-0.072882205
1.9236691,-1.1074994,-0.5947662,54.0,0,-0.07286147
4.292228,-2.4721293,0.08645923,39.0,8,-0.07285916
2.0278986,-1.1684494,-0.54033244,48.0,1,-0.07285686
5.113255,-2.9473815,0.30930555,37.0,9,-0.072854556
2.2588124,-1.3020242,-0.50678873,52.0,2,-0.072852254
6.6243167,-3.8199277,0.6690075,33.0,10,-0.072849944
2.4588091,-1.41845,-0.4495927,40.0,3,-0.07284764
8.883694,-5.126936,1.2593979,48.0,11,-0.07284534
2.6405995,-1.5245509,-0.37438264,44.0,4,-0.07284304
16.532507,-9.548895,3.0238788,30.0,12,-0.07284073
2.9743931,-1.7179589,-0.300513,39.0,5,-0.072838426
37.285286,-21.544027,8.37041,20.0,13,-0.07283612
3.366663,-1.9460948,-0.20379624,28.0,6,-0.07283382
3.8737855,-2.2410405,-0.078116976,32.0,7,-0.07282921
41.270473,-23.88518,12.776861,36.0,15,-0.07282691
1.9231331,-1.116147,-0.5958015,46.0,0,-0.07280617
4.357934,-2.5302722,0.08796013,38.0,8,-0.07280387
2.0271776,-1.1774784,-0.5412322,48.0,1,-0.07280156
5.1305656,-2.9812677,0.3109803,37.0,9,-0.07279926
2.2321866,-1.2970784,-0.50182766,49.0,2,-0.072796956
6.590272,-3.8310118,0.6669157,33.0,10,-0.07279465
2.4640887,-1.4329824,-0.45146993,42.0,3,-0.072792344
8.8468685,-5.1469336,1.2567167,48.0,11,-0.07279004
2.6266835,-1.5287662,-0.37316394,41.0,4,-0.07278774
16.60662,-9.669165,3.0435894,30.0,12,-0.07278544
2.987318,-1.7393588,-0.30243042,47.0,5,-0.072783135
3.3667517,-1.9618572,-0.20421492,26.0,6,-0.07277852
42.021717,-24.496511,11.229556,5.0,14,-0.07277622
3.910852,-2.2807415,-0.0790245,34.0,7,-0.07277392
41.39042,-24.147861,12.840013,18.0,15,-0.07277161
1.9208927,-1.1238288,-0.59631914,50.0,0,-0.072750874
4.3266397,-2.532338,0.08750637,43.0,8,-0.07274857
2.0432353,-1.1963633,-0.54663104,48.0,1,-0.07274627
5.1046176,-2.9900727,0.31003824,41.0,9,-0.07274396
2.2378097,-1.3108158,-0.5041174,54.0,2,-0.07274166
6.588892,-3.861044,0.66813594,35.0,10,-0.072739355
2.4607759,-1.4425741,-0.4517828,45.0,3,-0.07273705
8.8511095,-5.190838,1.2598853,48.0,11,-0.07273475
2.6470137,-1.5529938,-0.37682006,43.0,4,-0.07273244
16.755053,-9.834062,3.0770662,35.0,12,-0.07273014
2.9709187,-1.7437247,-0.30138457,44.0,5,-0.07272784
41.69827,-24.483797,9.399252,28.0,13,-0.072725534
3.3547168,-1.9705625,-0.2039009,27.0,6,-0.072723225
3.8856277,-2.2842445,-0.07867545,35.0,7,-0.07271862
42.36163,-24.913088,13.168196,20.0,15,-0.07271632
1.8936617,-1.1167879,-0.58907217,51.0,0,-0.072695576
4.3556643,-2.5697794,0.08827427,42.0,8,-0.07269327
2.0491161,-1.2094314,-0.5493305,52.0,1,-0.07269097
5.152623,-3.0423994,0.31359708,41.0,9,-0.07268867
2.229839,-1.3166229,-0.50335413,53.0,2,-0.07268637
6.6079683,-3.903273,0.6714478,33.0,10,-0.07268406
2.4642286,-1.4561799,-0.45334715,46.0,3,-0.072681755
8.921795,-5.2742333,1.2725598,46.0,11,-0.07267945
2.6569545,-1.5713184,-0.3790137,39.0,4,-0.07267715
16.80563,-9.942781,3.0927098,37.0,12,-0.07267484
2.997394,-1.77336,-0.30469647,43.0,5,-0.07267254
3.3014157,-1.9547858,-0.20107476,34.0,6,-0.072667934
3.8948343,-2.3079884,-0.0790245,34.0,7,-0.07266332
1.9080185,-1.1342502,-0.5947662,48.0,0,-0.072640285
4.360417,-2.5931451,0.08855351,40.0,8,-0.07263798
2.043207,-1.2155805,-0.5488806,50.0,1,-0.07263567
5.135107,-3.056281,0.3131784,41.0,9,-0.07263337
2.2387261,-1.3324312,-0.5064071,54.0,2,-0.07263107
6.722697,-4.0027623,0.6845212,38.0,10,-0.07262877
2.4557362,-1.4627507,-0.4527214,44.0,3,-0.07262646
8.934026,-5.3236346,1.2769471,42.0,11,-0.072624154
2.644633,-1.5765178,-0.37803873,48.0,4,-0.07262185
16.859043,-10.053995,3.108979,40.0,12,-0.07261955
3.001453,-1.7899352,-0.30574232,48.0,5,-0.07261724
42.537926,-25.377821,9.628222,29.0,13,-0.07261494
3.2448366,-1.9366142,-0.19803928,29.0,6,-0.072612636
43.77072,-26.134022,11.76944,6.0,14,-0.07261033
3.893621,-2.3256714,-0.07916412,34.0,7,-0.072608024
41.831787,-24.996159,13.057421,19.0,15,-0.07260572
1.9206188,-1.1508329,-0.59994256,47.0,0,-0.07258499
4.399363,-2.6371374,0.08953084,36.0,8,-0.072582684
2.035609,-1.2207007,-0.5479808,56.0,1,-0.07258038
5.158661,-3.0947366,0.31527182,41.0,9,-0.07257807
2.229011,-1.3372079,-0.50526226,50.0,2,-0.07257577
6.7001414,-4.021078,0.68364966,35.0,10,-0.07257347
2.4624705,-1.4784319,-0.4549115,51.0,3,-0.072571166
9.002176,-5.406915,1.2893778,40.0,11,-0.072568856
2.6289043,-1.5796051,-0.3765763,51.0,4,-0.072566554
16.805222,-10.101588,3.1055374,30.0,12,-0.07256425
3.0088475,-1.8086128,-0.30713683,48.0,5,-0.07256195
42.33131,-25.45533,9.601509,29.0,13,-0.07255964
3.3304749,-2.0035253,-0.20369156,25.0,6,-0.07255734
42.20656,-25.400381,11.372625,6.0,14,-0.072555035
3.8786266,-2.335123,-0.0790245,34.0,7,-0.07255273
41.942863,-25.261633,13.119538,20.0,15,-0.07255043
1.9099756,-1.1535351,-0.597872,49.0,0,-0.07252969
4.4534583,-2.69074,0.090822324,43.0,8,-0.072527386
2.0229967,-1.2227587,-0.54573125,58.0,1,-0.072525084
5.1683364,-3.1251261,0.3165279,35.0,9,-0.07252278
2.2159295,-1.339901,-0.50335413,49.0,2,-0.07252047
6.72016,-4.065066,0.6871359,33.0,10,-0.07251817
2.4556048,-1.4859957,-0.4545986,49.0,3,-0.07251587
8.947587,-5.4167166,1.2842592,29.0,11,-0.072513565
2.6148849,-1.5836306,-0.3753576,49.0,4,-0.072511256
16.751274,-10.148929,3.1020958,12.0,12,-0.07250895
3.0076282,-1.8222017,-0.30765978,49.0,5,-0.07250665
3.3029668,-2.002712,-0.20243551,27.0,6,-0.07250205
42.03266,-25.49601,11.349681,12.0,14,-0.07249974
3.8807092,-2.3548722,-0.07923393,34.0,7,-0.072497435
42.092228,-25.552242,13.1940775,20.0,15,-0.07249513
1.8993365,-1.1561772,-0.5958015,47.0,0,-0.0724744
4.4713655,-2.7229102,0.0913808,56.0,8,-0.07247209
2.038687,-1.2419791,-0.55113006,52.0,1,-0.072469786
5.1761565,-3.1545813,0.3176793,37.0,9,-0.07246748
2.214592,-1.3496714,-0.5041174,49.0,2,-0.07246518
6.7025275,-4.086425,0.68678725,33.0,10,-0.07246287
2.4537754,-1.4966155,-0.45522434,46.0,3,-0.07246057
8.903206,-5.432407,1.2806032,27.0,11,-0.07245827
2.633062,-1.6072279,-0.37876993,37.0,4,-0.072455965
17.283897,-10.554277,3.2075326,21.0,12,-0.07245366
3.0216541,-1.8451496,-0.3097515,52.0,5,-0.07245135
42.939995,-26.231262,9.7808695,30.0,13,-0.07244905
3.3351526,-2.0381837,-0.20484295,25.0,6,-0.07244675
41.752205,-25.525679,11.297942,24.0,14,-0.07244445
3.8724656,-2.368404,-0.07923393,33.0,7,-0.07244214
31.466246,-19.252335,9.8843,9.0,15,-0.072439834
1.891996,-1.1607795,-0.5947662,43.0,0,-0.0724191
4.478876,-2.7489617,0.09172984,58.0,8,-0.0724168
2.0476246,-1.2572452,-0.5547293,48.0,1,-0.07241449
5.1651134,-3.1726303,0.3176793,37.0,9,-0.072412185
2.2165587,-1.3615037,-0.50564384,49.0,2,-0.07240988
6.805351,-4.181769,0.69881475,38.0,10,-0.07240758
2.4485362,-1.5051715,-0.45522434,47.0,3,-0.07240528
9.110775,-5.6027946,1.3132643,38.0,11,-0.07240297
2.6494155,-1.6299313,-0.38193855,40.0,4,-0.07240067
17.482471,-10.759494,3.2513342,22.0,12,-0.072398365
2.9962084,-1.8447218,-0.30783406,58.0,5,-0.07239606
42.881603,-26.401577,9.788502,30.0,13,-0.07239375
3.3569276,-2.067619,-0.20662238,37.0,6,-0.07239145
41.588192,-25.625267,11.277697,12.0,14,-0.07238915
3.86077,-2.3798084,-0.07916412,34.0,7,-0.072386846
31.402136,-19.364082,9.885335,18.0,15,-0.072384536
1.8680136,-1.155511,-0.58855456,43.0,0,-0.0723638
4.4471455,-2.7509036,0.09127608,47.0,8,-0.0723615
2.020024,-1.2500288,-0.5484307,45.0,1,-0.0723592
5.257597,-3.254769,0.32406428,46.0,9,-0.072356895
2.221568,-1.3758208,-0.50793356,47.0,2,-0.072354585
6.7781224,-4.199339,0.6975946,35.0,10,-0.07235228
2.432929,-1.507892,-0.45334715,46.0,3,-0.07234998
9.011858,-5.5854115,1.3018084,42.0,11,-0.07234768
2.6588943,-1.6485841,-0.3841322,45.0,4,-0.07234537
17.69493,-10.975598,3.2979517,27.0,12,-0.07234307
2.9863648,-1.8530682,-0.30748546,59.0,5,-0.072340764
42.250786,-26.227236,9.666385,29.0,13,-0.07233846
3.34254,-2.0756946,-0.2062037,43.0,6,-0.07233615
41.225826,-25.61093,11.204812,11.0,14,-0.07233385
3.854138,-2.3943257,-0.079199016,31.0,7,-0.07233155
41.671394,-25.89781,13.146455,20.0,15,-0.072329246
1.8656079,-1.1630466,-0.58907217,37.0,0,-0.07230851
4.4014006,-2.7449625,0.090543084,40.0,8,-0.0723062
2.035269,-1.2698025,-0.5538295,45.0,1,-0.0723039
5.2275643,-3.2614725,0.32291287,43.0,9,-0.0723016
2.2350726,-1.3950015,-0.51213133,50.0,2,-0.072299294
6.797222,-4.2440777,0.7010808,33.0,10,-0.072296984
2.4343524,-1.5205615,-0.4545986,46.0,3,-0.07229468
9.218594,-5.7604165,1.3347132,50.0,11,-0.07229238
2.6444175,-1.6530572,-0.38291353,40.0,4,-0.07229008
17.703411,-11.066616,3.3067122,27.0,12,-0.07228777
2.983257,-1.8655941,-0.30783406,55.0,5,-0.072285466
3.3725207,-2.11066,-0.20850646,36.0,6,-0.07228086
41.537544,-26.00597,11.314138,6.0,14,-0.07227855
3.872875,-2.424743,-0.0797575,30.0,7,-0.07227625
31.007507,-19.420818,9.803548,9.0,15,-0.07227395
1.8778946,-1.1798286,-0.59424853,41.0,0,-0.07225321
4.4041266,-2.7669897,0.09078742,42.0,8,-0.07225091
2.0376465,-1.2806923,-0.5556291,45.0,1,-0.0722486
5.2973065,-3.3307295,0.32793713,46.0,9,-0.0722463
2.225204,-1.399659,-0.5109865,47.0,2,-0.072243996
6.792485,-4.2741456,0.7021267,33.0,10,-0.072241694
2.437656,-1.5338857,-0.45616296,41.0,3,-0.072239384
9.127202,-5.745481,1.3242323,44.0,11,-0.07223708
2.64732,-1.6671066,-0.3841322,41.0,4,-0.07223478
17.79504,-11.210473,3.3311157,28.0,12,-0.07223248
2.9581854,-1.8643111,-0.30591667,54.0,5,-0.07223017
3.3840876,-2.1335487,-0.20965785,37.0,6,-0.07222556
42.237312,-26.639452,11.528742,25.0,14,-0.07222326
3.8593142,-2.4350457,-0.07965278,31.0,7,-0.07222096
31.044075,-19.594927,9.836677,9.0,15,-0.07221865
1.8674426,-1.1819171,-0.592178,46.0,0,-0.072197914
4.4180946,-2.7973225,0.09127608,42.0,8,-0.07219561
2.03481,-1.2888403,-0.55607903,44.0,1,-0.07219331
5.3092666,-3.3641665,0.32940254,41.0,9,-0.072191
2.2106,-1.4007256,-0.5086968,45.0,2,-0.0721887
6.774908,-4.2945127,0.701778,33.0,10,-0.072186396
2.440628,-1.5476749,-0.45772728,45.0,3,-0.07218409
9.122177,-5.786876,1.326426,24.0,11,-0.07218178
2.6900907,-1.7071831,-0.3912006,44.0,4,-0.07217948
17.967596,-11.406981,3.37085,23.0,12,-0.07217718
2.981933,-1.8938527,-0.30905426,51.0,5,-0.07217488
3.3985348,-2.1592727,-0.21101859,40.0,6,-0.072170265
42.16216,-26.798222,11.53369,26.0,14,-0.07216796
3.8153543,-2.4259703,-0.07891978,34.0,7,-0.07216566
41.47941,-26.384605,13.172337,20.0,15,-0.07216336
1.8744981,-1.1960275,-0.5958015,49.0,0,-0.072142616
4.440333,-2.8331642,0.09193928,43.0,8,-0.07214031
2.0417972,-1.3032746,-0.5592283,41.0,1,-0.07213801
5.331158,-3.4041758,0.33149597,46.0,9,-0.07213571
2.2153783,-1.4151597,-0.5109865,48.0,2,-0.07213341
6.849782,-4.3772497,0.7111909,33.0,10,-0.0721311
2.4366035,-1.5576739,-0.45804018,50.0,3,-0.072128795
9.40465,-6.0122123,1.3705428,28.0,11,-0.07212649
2.6874597,-1.7187021,-0.3916881,47.0,4,-0.07212419
18.060785,-11.554796,3.3958797,23.0,12,-0.07212188
2.9618793,-1.8956578,-0.30765978,49.0,5,-0.07211958
3.4225526,-2.1921818,-0.21300736,37.0,6,-0.072114974
42.1539,-27.0104,11.558435,13.0,14,-0.072112665
3.8253834,-2.4511409,-0.079303734,33.0,7,-0.07211036
41.3773,-26.52298,13.169231,20.0,15,-0.07210806
1.867062,-1.200474,-0.5947662,47.0,0,-0.072087325
4.471965,-2.8764641,0.0928119,46.0,8,-0.07208502
2.0468395,-1.3170764,-0.56192774,45.0,1,-0.07208271
5.3477964,-3.441138,0.3332754,45.0,9,-0.07208041
2.217028,-1.4271348,-0.512513,47.0,2,-0.07207811
6.90314,-4.4453597,0.71833766,30.0,10,-0.07207581
2.4294906,-1.5650998,-0.45772728,49.0,3,-0.0720735
9.153953,-5.8993196,1.3371505,26.0,11,-0.072071195
2.6911528,-1.7349944,-0.39315054,46.0,4,-0.07206889
18.1349,-11.691625,3.4174676,34.0,12,-0.07206659
2.9669645,-1.9135442,-0.30887994,41.0,5,-0.07206428
44.732967,-28.86159,10.347954,33.0,13,-0.07206198
3.3628597,-2.1705396,-0.20976254,29.0,6,-0.072059676
42.561954,-27.481905,11.696555,6.0,14,-0.072057374
3.878961,-2.5046136,-0.08059521,39.0,7,-0.072055064
42.64109,-27.543545,13.601976,23.0,15,-0.07205276
1.8758304,-1.2153876,-0.5989073,49.0,0,-0.07203203
4.4926095,-2.9108503,0.09344018,43.0,8,-0.072029725
2.0359194,-1.3196172,-0.5601281,45.0,1,-0.07202742
5.369268,-3.4815164,0.33536884,47.0,9,-0.07202511
2.1856794,-1.4177701,-0.5064071,48.0,2,-0.07202281
6.944406,-4.506304,0.7242642,30.0,10,-0.07202051
2.42263,-1.5720723,-0.45741442,42.0,3,-0.072018206
8.906231,-5.7815638,1.3037584,22.0,11,-0.0720159
2.6903791,-1.7471527,-0.39388174,49.0,4,-0.072013594
18.142017,-11.786065,3.4265409,24.0,12,-0.07201129
2.9853256,-1.940175,-0.31149462,36.0,5,-0.07200899
3.4075518,-2.2154274,-0.21300736,36.0,6,-0.07200438
50.15835,-32.623024,13.813795,10.0,14,-0.072002076
3.8232634,-2.4876025,-0.07961788,33.0,7,-0.07199977
43.036884,-28.012598,13.759338,24.0,15,-0.07199746
1.8653184,-1.2173779,-0.5968367,47.0,0,-0.07197673
4.5259557,-2.954938,0.09434771,50.0,8,-0.07197443
2.0361955,-1.3299125,-0.56147784,53.0,1,-0.071972124
5.370458,-3.5089774,0.33620623,45.0,9,-0.07196982
2.1908271,-1.4314538,-0.5086968,53.0,2,-0.07196751
7.0394945,-4.601253,0.7357688,35.0,10,-0.07196521
2.4138212,-1.5783573,-0.4567887,44.0,3,-0.07196291
8.854431,-5.7919707,1.2991273,16.0,11,-0.071960606
2.6593482,-1.7402285,-0.39022568,46.0,4,-0.071958296
18.358591,-12.018102,3.4753485,21.0,12,-0.071955994
3.023538,-1.9800556,-0.31620103,43.0,5,-0.07195369
3.4014685,-2.228403,-0.21311203,37.0,6,-0.07194908
42.44073,-27.81477,11.715001,13.0,14,-0.07194678
3.9015174,-2.557947,-0.08143293,45.0,7,-0.071944475
1.8689138,-1.2295154,-0.59942496,50.0,0,-0.07192144
4.50559,-2.9641244,0.09413828,43.0,8,-0.07191913
2.041308,-1.3434399,-0.5641773,50.0,1,-0.071916826
5.4115586,-3.5628476,0.3395557,42.0,9,-0.071914524
2.2150786,-1.4589115,-0.51556593,43.0,2,-0.07191222
7.0109367,-4.6193504,0.73454857,33.0,10,-0.07190991
2.4245133,-1.5980649,-0.45991737,39.0,3,-0.07190761
9.241891,-6.0915895,1.359087,18.0,11,-0.07190531
2.6797736,-1.766985,-0.3941255,51.0,4,-0.071903005
18.583658,-12.25832,3.5260332,25.0,12,-0.071900696
3.0232599,-1.9949871,-0.3168983,39.0,5,-0.07189839
44.775635,-29.557737,10.428857,33.0,13,-0.07189609
3.4016113,-2.2463582,-0.2136354,38.0,6,-0.07189379
37.364674,-24.684275,10.338751,5.0,14,-0.07189149
3.8825538,-2.5649366,-0.0812235,37.0,7,-0.07188918
43.217403,-28.561607,13.8804655,25.0,15,-0.071886875
1.8694409,-1.2392339,-0.60097784,48.0,0,-0.07186614
4.4830303,-2.972882,0.093893945,35.0,8,-0.07186384
2.0493615,-1.359531,-0.5677765,54.0,1,-0.07186153
5.425719,-3.5993812,0.34123048,42.0,9,-0.071859226
2.2017934,-1.461207,-0.51365787,44.0,2,-0.07185692
7.0063887,-4.6515083,0.7357688,44.0,10,-0.07185462
2.4255025,-1.6108898,-0.46116886,42.0,3,-0.07185231
8.976448,-5.9639378,1.3232574,24.0,11,-0.07185001
2.686505,-1.7855858,-0.3960754,46.0,4,-0.07184771
18.557209,-12.334049,3.529162,25.0,12,-0.071845405
3.0063229,-1.9989089,-0.3158524,42.0,5,-0.0718431
3.417028,-2.2737083,-0.2151008,31.0,6,-0.07183849
42.19194,-28.085361,11.701504,13.0,14,-0.07183619
3.8852289,-2.58623,-0.08146784,34.0,7,-0.071833886
1.8683169,-1.2478977,-0.6020132,47.0,0,-0.07181084
4.4931016,-3.00106,0.09431281,37.0,8,-0.07180854
2.0399806,-1.3630716,-0.56642675,47.0,1,-0.07180624
5.447991,-3.6416066,0.34342858,43.0,9,-0.071803935
2.1983116,-1.469975,-0.51403946,45.0,2,-0.071801625
7.0397906,-4.709171,0.74099815,44.0,10,-0.07179932
2.4168637,-1.6167277,-0.46054313,41.0,3,-0.07179702
9.359165,-6.2630506,1.3827296,28.0,11,-0.07179472
2.6657228,-1.784546,-0.39388174,35.0,4,-0.07179241
18.776651,-12.574617,3.579221,37.0,12,-0.07179011
3.005948,-2.0138266,-0.31654966,40.0,5,-0.071787804
3.4111288,-2.286139,-0.21520546,28.0,6,-0.07178319
42.38831,-28.419374,11.782037,6.0,14,-0.07178089
3.869535,-2.5953207,-0.08132821,30.0,7,-0.07177859
41.71755,-27.990772,13.461179,45.0,15,-0.071776286
1.8737857,-1.2605563,-0.60511893,47.0,0,-0.07175555
4.5174375,-3.0401719,0.095045805,37.0,8,-0.07175324
2.0303607,-1.3669193,-0.56507707,54.0,1,-0.07175094
5.4822745,-3.6908844,0.3463594,43.0,9,-0.07174864
2.193425,-1.4772568,-0.51403946,48.0,2,-0.071746334
7.0588346,-4.755868,0.74465865,33.0,10,-0.071744025
2.4144814,-1.6273623,-0.46116886,44.0,3,-0.07174172
9.317496,-6.2823644,1.3798048,22.0,11,-0.07173942
2.674289,-1.8038306,-0.3960754,44.0,4,-0.07173712
18.782343,-12.668849,3.5882943,34.0,12,-0.07173481
3.0124662,-2.032699,-0.31794414,42.0,5,-0.071732506
3.4047832,-2.2991502,-0.21531016,29.0,6,-0.0717279
42.285614,-28.56498,11.7811365,27.0,14,-0.07172559
3.8874195,-2.626048,-0.081886694,31.0,7,-0.07172329
41.60529,-28.115978,13.4549675,22.0,15,-0.07172099
1.8709732,-1.2681735,-0.6056366,46.0,0,-0.07170025
4.545402,-3.0809412,0.09584861,45.0,8,-0.07169795
2.0129135,-1.3648952,-0.56147784,49.0,1,-0.07169564
5.4875393,-3.7223313,0.34751078,45.0,9,-0.07169334
2.201251,-1.4937232,-0.5170924,48.0,2,-0.071691036
7.114722,-4.8297157,0.75232834,35.0,10,-0.071688734
2.4221468,-1.6442358,-0.46367183,37.0,3,-0.071686424
9.071628,-6.160444,1.3464125,16.0,11,-0.07168412
2.6797867,-1.8204974,-0.39778158,45.0,4,-0.07168182
18.914454,-12.85425,3.6220841,32.0,12,-0.07167952
3.0086474,-2.0454426,-0.31829277,46.0,5,-0.07167721
43.84307,-29.80691,10.305213,33.0,13,-0.071674906
3.4351249,-2.3362617,-0.2177176,30.0,6,-0.0716726
42.097214,-28.641468,11.755043,20.0,14,-0.0716703
3.8914545,-2.648603,-0.08216593,31.0,7,-0.071668
1.8633446,-1.2725177,-0.6046013,51.0,0,-0.07165027
4.5423355,-3.10322,0.09602314,52.0,8,-0.071647964
2.028813,-1.3865582,-0.56732655,51.0,1,-0.07164566
5.4854007,-3.7503102,0.34824347,43.0,9,-0.07164335
2.2025065,-1.5058303,-0.5186189,44.0,2,-0.07164105
7.096175,-4.853397,0.752154,41.0,10,-0.07163875
