x,y,z,intensity,ring,time
-1.4746791,-11.9072,-1.0497037,66.0,5,-0.04101169
-6.2639327,-50.577713,9.906422,31.0,13,-0.04100939
-1.5403482,-12.41967,-0.65587425,82.0,6,-0.041007083
-6.1664457,-49.64853,11.550337,19.0,14,-0.04100478
-0.5797603,-4.595731,-1.0694174,5.0,1,-0.04097483
-1.5457437,-12.235825,0.64634913,2.0,9,-0.040972523
-0.70963466,-5.609464,-1.0990598,29.0,2,-0.04097022
-1.5888053,-12.541473,1.1060064,44.0,10,-0.040967915
-0.88802195,-6.999943,-1.117568,30.0,3,-0.040965613
-1.5906618,-12.538589,1.5518843,60.0,11,-0.040963307
-1.1532965,-9.078312,-1.1236354,41.0,4,-0.040961005
-1.5152259,-11.8940735,-1.0490065,48.0,5,-0.040956397
-6.61522,-51.85532,10.161343,32.0,13,-0.040954094
-2.5574684,-20.019608,-1.0577098,21.0,6,-0.04095179
-1.5924996,-12.448643,-0.21906261,28.0,7,-0.04094718
-0.6003661,-4.622563,-1.0761659,7.0,1,-0.04091953
-1.5962458,-12.27365,0.6486519,11.0,9,-0.04091723
-0.7243997,-5.5699625,-1.0918092,30.0,2,-0.040914923
-1.6220233,-12.454848,1.0988595,33.0,10,-0.04091262
-0.91832644,-7.0418534,-1.124764,27.0,3,-0.04091032
-1.1842462,-9.05631,-1.1214418,39.0,4,-0.04090571
-6.8464923,-52.286343,8.352037,14.0,12,-0.040903404
-1.5577697,-11.896614,-1.0497037,50.0,5,-0.040901102
-2.6777737,-20.394732,-1.0780162,22.0,6,-0.040896494
-6.791085,-51.653107,12.027683,7.0,14,-0.040894188
-1.6396817,-12.454617,-0.21927203,20.0,7,-0.040891886
-1.6558086,-12.426258,0.21881828,67.0,8,-0.04086654
-0.61778694,-4.630097,-1.0784154,7.0,1,-0.040864237
-1.6443707,-12.307598,0.6507454,30.0,9,-0.040861934
-0.7459188,-5.5829678,-1.0948621,29.0,2,-0.04085963
-1.6602038,-12.409615,1.0953734,19.0,10,-0.040857326
-0.93660676,-6.991615,-1.1172551,25.0,3,-0.04085502
-1.2063382,-8.981293,-1.1126672,35.0,4,-0.040850412
-1.6011465,-11.904926,-1.050924,52.0,5,-0.040845804
-7.2485404,-53.823616,10.5567,34.0,13,-0.0408435
-1.6858295,-12.501534,-0.6611079,33.0,6,-0.040841196
-6.6978025,-49.60324,11.555736,13.0,14,-0.040838894
-0.6331514,-4.6221204,-1.0770656,8.0,1,-0.040808942
-1.7022481,-12.410612,0.6565023,37.0,9,-0.040806636
-0.7686033,-5.6036706,-1.0994414,29.0,2,-0.040804334
-1.706224,-12.423482,1.0971165,19.0,10,-0.040802028
-0.9575073,-6.962862,-1.1131878,30.0,3,-0.040799726
-1.7042937,-12.377386,1.5340914,30.0,11,-0.04079742
-1.238224,-8.980961,-1.1131548,43.0,4,-0.040795118
-7.259438,-52.585583,8.407727,14.0,12,-0.04079281
-1.6462351,-11.924922,-1.05319,50.0,5,-0.04079051
-2.807768,-20.28651,-1.073306,24.0,6,-0.0407859
-6.808582,-49.129807,11.450909,25.0,14,-0.040783595
-1.7395091,-12.53596,-0.22091258,40.0,7,-0.040781293
-0.6481971,-4.612163,-1.075266,8.0,1,-0.040753644
-0.79417783,-5.6437235,-1.1078371,32.0,2,-0.040749036
-0.9815306,-6.957522,-1.1128749,27.0,3,-0.040744428
-1.7505444,-12.392983,1.5367726,36.0,11,-0.040742125
-1.292082,-9.135792,-1.1328975,35.0,4,-0.04073982
-7.211956,-50.928734,8.146795,13.0,12,-0.040737517
-1.690364,-11.936858,-1.0547588,54.0,5,-0.04073521
-2.8594732,-20.142122,-1.0661882,10.0,6,-0.040730603
-6.9641304,-48.99383,11.424814,6.0,14,-0.0407283
-0.6659604,-4.621445,-1.0779655,12.0,1,-0.04069835
-0.8088271,-5.605941,-1.100968,30.0,2,-0.04069374
-1.788925,-12.38366,1.0946761,63.0,10,-0.040691435
-1.0080733,-6.969693,-1.1153778,22.0,3,-0.040689133
-1.7875333,-12.343576,1.5314103,2.0,11,-0.040686827
-1.3339338,-9.199985,-1.1414284,43.0,4,-0.040684525
-7.437494,-51.29552,8.209369,14.0,12,-0.04068222
-1.7348838,-11.950603,-1.0565019,54.0,5,-0.040679917
-7.079814,-48.70892,9.567545,29.0,13,-0.040677615
-3.1584313,-21.703287,-1.1494024,3.0,6,-0.04067531
-7.434631,-51.024876,11.904409,7.0,14,-0.040673006
-0.6923715,-4.694399,-1.0955117,15.0,1,-0.04064305
-1.8524206,-12.544565,0.66456205,1.0,9,-0.04064075
-0.8318357,-5.626389,-1.1055473,30.0,2,-0.040638443
-1.0340729,-6.985853,-1.1185066,22.0,3,-0.040633835
-1.8232182,-12.302235,1.527023,22.0,11,-0.040631533
-1.3836637,-9.325108,-1.157515,45.0,4,-0.04062923
-7.6165047,-51.26925,8.209369,14.0,12,-0.040626924
-1.7789336,-11.960238,-1.0578964,54.0,5,-0.040624622
-7.243612,-48.700706,9.570598,29.0,13,-0.040622316
-3.2680404,-21.945555,-1.1628003,3.0,6,-0.040620014
-7.338261,-49.218994,11.4887,19.0,14,-0.040617708
-1.8881614,-12.514433,0.22091258,1.0,8,-0.04059006
-0.7017676,-4.6457076,-1.0847139,22.0,1,-0.040587757
-0.85753495,-5.670188,-1.1147063,24.0,2,-0.04058315
-1.0809525,-7.1306343,-1.1422846,22.0,3,-0.04057854
-7.778847,-51.253746,6.3652363,12.0,11,-0.04057624
-1.422768,-9.363398,-1.1628774,39.0,4,-0.040573932
-7.780568,-51.144707,8.193726,13.0,12,-0.04057163
-1.8269762,-12.009426,-1.062777,52.0,5,-0.040569324
-3.3988156,-22.289412,-1.1816413,3.0,6,-0.040564716
-7.532669,-49.341408,11.523342,12.0,14,-0.040562414
-0.71649116,-4.633601,-1.0824645,21.0,1,-0.040532462
-0.8851315,-5.717603,-1.1246282,19.0,2,-0.040527854
-1.9227558,-12.405929,1.0983366,11.0,10,-0.04052555
-1.120981,-7.224418,-1.1579281,26.0,3,-0.040523246
-1.9279506,-12.410824,1.5421348,44.0,11,-0.04052094
-1.4645945,-9.417219,-1.1701895,46.0,4,-0.040518638
-8.052047,-51.714504,8.289463,14.0,12,-0.04051633
-1.878695,-12.065973,-1.0683551,46.0,5,-0.04051403
-3.5184805,-22.545792,-1.1958767,3.0,6,-0.04050942
-7.6916227,-49.2301,11.503548,19.0,14,-0.040507115
-0.7360108,-4.652244,-1.0874133,22.0,1,-0.040477164
-0.90754145,-5.729992,-1.1276813,27.0,2,-0.040472556
-1.114603,-7.0214643,-1.1260154,22.0,3,-0.040467948
-1.498308,-9.427995,-1.1721394,31.0,4,-0.04046334
-1.9336498,-12.140013,-1.0755018,48.0,5,-0.04045873
-3.649427,-22.860771,-1.2132523,3.0,6,-0.040454123
-7.9387007,-49.729675,11.62637,19.0,14,-0.04045182
-0.7445947,-4.6074553,-1.0775156,22.0,1,-0.04042187
-0.9290458,-5.742455,-1.1307341,26.0,2,-0.04041726
-2.0211706,-12.479092,1.1060064,8.0,10,-0.040414955
-1.1562188,-7.130824,-1.1441618,17.0,3,-0.040412653
-2.0196996,-12.442481,1.5477408,46.0,11,-0.040410347
-1.5279742,-9.4131775,-1.1709207,43.0,4,-0.040408045
-1.991173,-12.239728,-1.0849147,18.0,5,-0.040403437
-3.7882063,-23.234903,-1.233768,3.0,6,-0.04039883
-8.082867,-49.576134,11.596677,6.0,14,-0.040396526
-0.7814436,-4.735707,-1.1081089,22.0,1,-0.04036657
-0.93400466,-5.6541147,-1.113943,35.0,2,-0.040361963
-1.2063152,-7.2867565,-1.1698171,28.0,3,-0.040357355
-2.0489395,-12.363255,1.5387224,36.0,11,-0.040355053
-1.5799925,-9.523328,-1.1853014,43.0,4,-0.040352747
-2.2782116,-13.716984,-1.2165198,28.0,5,-0.040348142
-8.284798,-49.82853,9.81865,30.0,13,-0.040345836
-3.9373794,-23.65565,-1.2567958,3.0,6,-0.040343534
-8.413775,-50.49528,11.818479,14.0,14,-0.04034123
-8.522943,-50.60549,0.89576226,19.0,8,-0.04031358
-0.79602575,-4.7214203,-1.1054094,22.0,1,-0.040311277
-10.564436,-62.593624,3.3267877,19.0,9,-0.04030897
-0.9873885,-5.8502154,-1.1532496,36.0,2,-0.04030667
-9.563434,-56.602505,5.0222626,21.0,10,-0.040304366
-1.2277894,-7.259129,-1.1660627,23.0,3,-0.04030206
-9.940136,-58.70727,7.310942,15.0,11,-0.04029976
-1.5953108,-9.412066,-1.1721394,43.0,4,-0.040297452
-2.327744,-13.718768,-1.2173914,40.0,5,-0.040292844
-8.273267,-48.70766,9.603417,29.0,13,-0.040290542
-4.092916,-24.071001,-1.2796142,3.0,6,-0.040288236
-8.439889,-49.58382,11.611974,6.0,14,-0.040285934
-8.7351265,-50.782364,0.89942724,19.0,8,-0.040258285
-0.80687964,-4.685965,-1.0977612,25.0,1,-0.040255982
-10.890082,-63.17833,3.3598642,21.0,9,-0.040253676
-1.0158082,-5.893166,-1.1624085,36.0,2,-0.040251374
-1.2780012,-7.3988442,-1.189215,27.0,3,-0.040246766
-10.150409,-58.70352,7.314842,16.0,11,-0.04024446
-1.641021,-9.480768,-1.1814015,43.0,4,-0.040242158
-9.489118,-54.76517,8.803194,16.0,12,-0.040239852
-2.375958,-13.7125225,-1.2175657,40.0,5,-0.04023755
-4.221329,-24.312386,-1.2932216,3.0,6,-0.04023294
-8.733392,-50.247158,11.774388,13.0,14,-0.040230636
-0.71867585,-4.096717,-1.1144749,1.0,0,-0.040205292
-8.965947,-51.05684,0.9048374,10.0,8,-0.04020299
-0.82458204,-4.690797,-1.0995607,23.0,1,-0.040200684
-1.0384139,-5.9011855,-1.1646981,36.0,2,-0.040196076
-1.3024493,-7.386556,-1.1879635,27.0,3,-0.040191468
-1.6861942,-9.543402,-1.1899325,48.0,4,-0.04018686
-2.1492121,-12.15158,1.9544924,1.0,12,-0.040184557
-2.4279735,-13.727689,-1.2196574,42.0,5,-0.04018225
-8.641853,-48.811108,9.635473,29.0,13,-0.04017995
-4.3967896,-24.80882,-1.3204364,3.0,6,-0.040177643
-9.0098295,-50.786243,11.908009,7.0,14,-0.04017534
-0.74182326,-4.1436253,-1.1279335,1.0,0,-0.040149998
-9.168455,-51.16105,0.9072459,20.0,8,-0.040147692
-0.8529936,-4.7550244,-1.1153073,31.0,1,-0.04014539
-1.0551906,-5.876269,-1.1605004,29.0,2,-0.04014078
-1.3474641,-7.488894,-1.2051712,35.0,3,-0.040136173
-1.7311198,-9.601926,-1.1979758,43.0,4,-0.040131565
-2.1852999,-12.109013,1.9488608,7.0,12,-0.04012926
-2.4847224,-13.768148,-1.2240152,38.0,5,-0.040126957
-4.5899825,-25.382936,-1.3518379,4.0,6,-0.04012235
-9.099577,-50.271255,11.794634,6.0,14,-0.040120043
-0.7531591,-4.1239066,-1.1232747,2.0,0,-0.0400947
-9.323611,-51.000874,0.90497714,20.0,8,-0.040092397
-0.8660783,-4.732849,-1.1108083,27.0,1,-0.04009009
-1.0880762,-5.94014,-1.173857,19.0,2,-0.040085483
-1.3743111,-7.48803,-1.205797,33.0,3,-0.040080875
-1.7714468,-9.632919,-1.2026067,45.0,4,-0.040076267
-2.537458,-13.784863,-1.2262813,42.0,5,-0.04007166
-4.805345,-26.054207,-1.388473,4.0,6,-0.040067054
-9.228309,-49.986225,11.735247,13.0,14,-0.04006475
-0.76507324,-4.1079583,-1.1196512,3.0,0,-0.040039405
-9.535297,-51.148872,0.90818834,10.0,8,-0.0400371
-0.8804496,-4.7183027,-1.1081089,28.0,1,-0.040034797
-1.1077226,-5.930516,-1.1727122,26.0,2,-0.04003019
-1.4095246,-7.531729,-1.2136188,30.0,3,-0.04002558
-1.8244512,-9.730086,-1.215525,43.0,4,-0.040020972
-9.859292,-52.53055,8.465296,15.0,12,-0.04001867
-2.369453,-12.624502,-1.1237862,2.0,5,-0.040016364
-9.490688,-50.420994,11.845022,14.0,14,-0.040009454
-0.7671573,-4.0407324,-1.1020516,4.0,0,-0.039984107
-9.716764,-51.13099,0.90846753,20.0,8,-0.039981805
-0.9012836,-4.7381735,-1.1135077,36.0,1,-0.039979503
-2.360926,-12.39992,0.66152656,3.0,9,-0.039977197
-1.1284181,-5.926613,-1.1727122,31.0,2,-0.039974894
-1.2492511,-6.548808,-1.0559328,4.0,3,-0.039970286
-1.8673483,-9.7704525,-1.2213746,45.0,4,-0.039965678
-2.3401911,-12.232921,1.9726388,15.0,12,-0.039963372
-2.6122906,-13.655271,-1.2163455,24.0,5,-0.03996107
-9.794388,-51.14996,10.12318,32.0,13,-0.039958764
-5.6052003,-29.244822,-1.5605537,5.0,6,-0.03995646
-13.424911,-69.977615,16.450222,35.0,14,-0.039954156
-0.7963023,-4.1157937,-1.1232747,7.0,0,-0.039928813
-9.896328,-51.102654,0.90857226,20.0,8,-0.03992651
-0.93710166,-4.8344817,-1.1369027,38.0,1,-0.039924204
-2.4072375,-12.4072895,0.6623639,6.0,9,-0.039921902
-1.1367587,-5.8590364,-1.1601188,35.0,2,-0.039919596
-1.4635793,-7.5294614,-1.2148702,41.0,3,-0.039914988
-1.9158605,-9.837918,-1.2306367,45.0,4,-0.03991038
-10.463884,-53.68194,8.662403,15.0,12,-0.039908078
-2.6572745,-13.632379,-1.2151253,26.0,5,-0.03990577
-13.999565,-71.621025,16.847935,18.0,14,-0.03989886
-0.80394006,-4.078872,-1.1139573,10.0,0,-0.039873518
-10.041752,-50.901035,0.9056054,10.0,8,-0.039871212
-0.9547259,-4.835005,-1.1378024,35.0,1,-0.03986891
-1.1682428,-5.910887,-1.1711857,21.0,2,-0.0398643
-11.346609,-57.357117,5.1153445,21.0,10,-0.039861996
-1.4913871,-7.532058,-1.2161217,46.0,3,-0.039859693
-1.9544399,-9.85259,-1.2333179,45.0,4,-0.039855085
-2.7009628,-13.6034775,-1.2133822,32.0,5,-0.039850477
-5.958076,-29.953268,-1.6005384,5.0,6,-0.03984587
-14.265459,-71.65199,16.86683,18.0,14,-0.039843563
-0.8288571,-4.133008,-1.1294864,10.0,0,-0.03978634
-10.289201,-51.25957,0.91258633,10.0,8,-0.039784037
-0.96653205,-4.810796,-1.1328535,37.0,1,-0.03978173
-1.1940297,-5.9377756,-1.1772915,29.0,2,-0.039777122
-1.5210378,-7.5503087,-1.219876,48.0,3,-0.039772514
-10.606891,-52.604294,6.5889883,13.0,11,-0.039770212
-1.9937766,-9.879132,-1.2374614,45.0,4,-0.039767906
-2.763022,-13.678423,-1.2208776,24.0,5,-0.039763298
-6.7343717,-33.27885,-1.7794226,13.0,6,-0.03975869
-0.83013946,-4.065734,-1.1118866,10.0,0,-0.039731044
-10.313515,-50.46709,0.89911306,9.0,8,-0.03972874
-0.99034774,-4.8417587,-1.1409518,33.0,1,-0.039726436
-1.2273504,-5.995119,-1.1895033,26.0,2,-0.039721828
-11.470396,-55.978638,4.9992533,20.0,10,-0.039719522
-1.5497646,-7.556564,-1.2217534,43.0,3,-0.03971722
-10.814393,-52.68362,6.6036124,13.0,11,-0.039714914
-2.0406337,-9.932392,-1.2450173,39.0,4,-0.03971261
-2.789483,-13.565262,-1.211639,28.0,5,-0.039708003
-10.1907835,-49.514,9.826282,30.0,13,-0.039705697
-6.850094,-33.253185,-1.779318,13.0,6,-0.039703395
-14.933086,-72.42736,17.072886,19.0,14,-0.03970109
-0.85415304,-4.1100974,-1.1248276,15.0,0,-0.039675746
-10.561287,-50.77536,0.90525633,10.0,8,-0.039673444
-1.012406,-4.863074,-1.1468004,28.0,1,-0.039671138
-1.2490702,-5.9946423,-1.1902666,21.0,2,-0.03966653
-11.7397585,-56.293232,5.030978,21.0,10,-0.039664228
-1.5801697,-7.5704446,-1.224882,43.0,3,-0.03966192
-2.0622911,-9.86303,-1.2372177,43.0,4,-0.039657313
-11.020953,-52.662487,8.521612,15.0,12,-0.03965501
-2.9106872,-13.908419,-1.2431895,26.0,5,-0.039652705
-7.056284,-33.659122,-1.802346,21.0,6,-0.039648097
-0.8672953,-4.101421,-1.1232747,18.0,0,-0.03962045
-10.755854,-50.820347,0.9067223,10.0,8,-0.039618146
-1.0257409,-4.842353,-1.1427513,31.0,1,-0.039615843
-12.834104,-60.53556,3.24305,16.0,9,-0.039613537
-1.2594014,-5.9403114,-1.1803445,26.0,2,-0.039611235
-1.6033022,-7.5494246,-1.2223791,51.0,3,-0.039606627
-11.77708,-55.406788,6.9550843,14.0,11,-0.03960432
-2.0851402,-9.801405,-1.230393,37.0,4,-0.03960202
-11.215404,-52.67393,8.529746,15.0,12,-0.039599717
-2.9716651,-13.956634,-1.2484188,40.0,5,-0.03959741
-11.713036,-54.96397,10.923816,36.0,13,-0.03959511
-7.2649727,-34.06206,-1.8252691,14.0,6,-0.039592803
-15.377318,-72.03548,17.0054,19.0,14,-0.0395905
-0.87795085,-4.0813704,-1.1186159,22.0,0,-0.039565153
-10.857427,-50.43061,0.90043944,9.0,8,-0.03956285
-1.049205,-4.869223,-1.1499498,37.0,1,-0.039560545
-1.2983401,-6.0203204,-1.1971357,26.0,2,-0.039555937
-1.625474,-7.5244737,-1.2192503,37.0,3,-0.039551333
-11.478755,-53.09136,6.669422,13.0,11,-0.039549027
-2.1340353,-9.861974,-1.2389238,41.0,4,-0.039546724
-2.6337388,-12.160969,1.9707617,1.0,12,-0.03954442
-11.4564905,-52.85439,10.512431,34.0,13,-0.03953981
-7.434213,-34.26877,-1.8377249,7.0,6,-0.039537508
-0.894669,-4.0896044,-1.1217217,21.0,0,-0.03950986
-10.989767,-50.193157,0.8968792,9.0,8,-0.039507553
-1.0607733,-4.8407845,-1.1441011,35.0,1,-0.03950525
-13.654312,-62.258816,3.3403952,20.0,9,-0.03950295
-1.327758,-6.0541053,-1.2047681,28.0,2,-0.039500643
-1.6597828,-7.555412,-1.2251948,37.0,3,-0.039496034
-11.431261,-51.99239,6.5363407,12.0,11,-0.039493732
-2.1884978,-9.945583,-1.2503796,39.0,4,-0.039491426
-3.0660288,-13.921927,-1.2471986,34.0,5,-0.039486818
-7.646722,-34.663887,-1.860334,22.0,6,-0.03948221
-15.837834,-71.73608,16.96041,19.0,14,-0.039479908
-0.9198446,-4.1354866,-1.1351804,23.0,0,-0.039454564
-11.329156,-50.892315,0.9100732,10.0,8,-0.03945226
-1.0886819,-4.8865066,-1.1557984,35.0,1,-0.039449956
-13.749854,-61.664944,3.311087,19.0,9,-0.03944765
-1.3471744,-6.0417686,-1.2032416,28.0,2,-0.039445348
-12.509834,-56.057716,5.025051,21.0,10,-0.039443042
-1.6805476,-7.52451,-1.2211275,28.0,3,-0.03944074
-11.57891,-51.80106,6.517329,12.0,11,-0.039438434
-2.2457368,-10.038619,-1.263054,43.0,4,-0.03943613
-11.813852,-52.765644,8.564162,15.0,12,-0.039433826
-3.096758,-13.831427,-1.2400519,24.0,5,-0.039431524
-11.859548,-52.926384,10.54296,34.0,13,-0.039429218
-7.8323584,-34.92541,-1.8758256,30.0,6,-0.039426915
-0.9325706,-4.1247134,-1.1331098,21.0,0,-0.039399266
-11.474519,-50.71008,0.9075252,20.0,8,-0.039396964
-1.1147708,-4.92259,-1.1652465,46.0,1,-0.039394658
-1.3830098,-6.102129,-1.2162166,16.0,2,-0.03939005
-1.7269201,-7.6072106,-1.2355195,31.0,3,-0.03938544
-11.726231,-51.613213,6.4988055,12.0,11,-0.03938314
-2.2842846,-10.046205,-1.2650038,46.0,4,-0.039380834
-12.726453,-55.92532,9.08415,17.0,12,-0.03937853
-3.1131916,-13.680656,-1.2275014,24.0,5,-0.039376225
-12.012829,-52.746838,10.515485,34.0,13,-0.039373923
-7.9755254,-34.991337,-1.8808498,7.0,6,-0.039371617
-15.969873,-70.00882,16.577993,18.0,14,-0.039369315
-0.94912535,-4.130847,-1.135698,27.0,0,-0.03934397
-11.737055,-51.041946,0.91419196,10.0,8,-0.039341666
-1.1315107,-4.9167695,-1.1647966,44.0,1,-0.039339364
-1.394608,-6.055175,-1.207821,28.0,2,-0.039334755
-12.938478,-56.132103,5.0396934,21.0,10,-0.03933245
-1.7472466,-7.574189,-1.2311394,20.0,3,-0.039330147
-2.326489,-10.069115,-1.2689037,43.0,4,-0.03932554
-3.2592275,-14.094822,-1.2656757,18.0,5,-0.03932093
-12.212812,-52.773438,10.5292225,34.0,13,-0.03931863
-8.312131,-35.889458,-1.9306737,16.0,6,-0.039316323
-0.9631004,-4.125627,-1.1351804,27.0,0,-0.039288674
-11.676764,-49.980305,0.89590186,9.0,8,-0.03928637
-1.1504407,-4.92038,-1.1665962,27.0,1,-0.039284065
-1.431392,-6.117176,-1.2211776,20.0,2,-0.039279457
-1.786295,-7.6218953,-1.2398998,20.0,3,-0.03927485
-12.395421,-52.848156,6.665035,13.0,11,-0.039272547
-2.350282,-10.012619,-1.2628102,41.0,4,-0.039270245
-3.2468987,-13.821515,-1.2421436,16.0,5,-0.039265636
-12.475134,-53.063026,10.595624,34.0,13,-0.03926333
-8.580073,-36.466805,-1.9633311,16.0,6,-0.03926103
-16.502901,-70.085304,16.622984,18.0,14,-0.039258722
-0.9913131,-4.180512,-1.1512272,27.0,0,-0.03923338
-11.784668,-49.65906,0.8908755,9.0,8,-0.039231073
-1.1739138,-4.942878,-1.1728948,27.0,1,-0.03922877
-13.818808,-58.140324,3.1318886,12.0,9,-0.039226465
-1.4132395,-5.9459686,-1.1879768,28.0,2,-0.039224163
-13.385359,-56.273003,5.060611,21.0,10,-0.03922186
-1.7817837,-7.4849386,-1.2186246,25.0,3,-0.039219555
-12.475846,-52.368145,6.60995,13.0,11,-0.039217252
-2.387059,-10.012079,-1.2637852,41.0,4,-0.039214946
-12.543011,-52.56865,8.559782,15.0,12,-0.039212644
-3.3570862,-14.069786,-1.2655014,16.0,5,-0.03921034
-0.99142647,-4.1169252,-1.1346627,28.0,0,-0.039178085
-11.958878,-49.62151,0.8909454,19.0,8,-0.03917578
-1.192074,-4.942539,-1.1737946,31.0,1,-0.039173476
-14.042293,-58.177155,3.1364942,12.0,9,-0.03917117
-1.4565579,-6.034513,-1.2066761,22.0,2,-0.03916887
-14.647399,-60.637714,5.4576926,28.0,10,-0.039166562
-1.8394624,-7.609239,-1.2398998,25.0,3,-0.03916426
-12.386438,-51.199417,6.46785,25.0,11,-0.039161954
-2.4177902,-9.98632,-1.2615916,43.0,4,-0.03915965
-3.531446,-14.574992,-1.3120426,26.0,5,-0.039155044
-13.381945,-55.187878,11.0383005,36.0,13,-0.039152738
-8.794887,-36.24298,-1.9545387,8.0,6,-0.039150435
-1.0383694,-4.2466755,-1.171415,30.0,0,-0.039122786
-12.16909,-49.73097,0.89366794,9.0,8,-0.039120484
-1.2032932,-4.9137416,-1.1679459,33.0,1,-0.03911818
-1.4832213,-6.0522747,-1.2112557,18.0,2,-0.03911357
-1.8707219,-7.621956,-1.2430284,23.0,3,-0.03910896
-12.496899,-50.87827,6.432752,24.0,11,-0.03910666
-2.4668489,-10.03565,-1.2689037,30.0,4,-0.039104354
-3.6008637,-14.638028,-1.3188407,24.0,5,-0.039099745
-13.544465,-55.01883,11.013878,36.0,13,-0.039097443
-16.302269,-66.07218,-1.1878806,44.0,7,-0.03909053
-1.0489978,-4.226151,-1.1667564,31.0,0,-0.039067492
-12.337785,-49.66878,0.89331883,19.0,8,-0.039065186
-1.2434747,-5.002179,-1.1899911,30.0,1,-0.039062884
-1.5417814,-6.19757,-1.2414035,33.0,2,-0.039058276
-1.9183277,-7.6997175,-1.2567947,27.0,3,-0.039053667
-12.948637,-51.93415,6.5719266,13.0,11,-0.03905136
-2.4970593,-10.007719,-1.2664663,39.0,4,-0.03904906
-13.99058,-56.029835,9.146724,17.0,12,-0.039046753
-3.657246,-14.646634,-1.3207581,12.0,5,-0.03904445
-17.309515,-69.167496,16.461018,17.0,14,-0.03903754
-15.027785,-60.005413,-1.0797455,34.0,7,-0.039035235
-1.068463,-4.2411966,-1.1719327,31.0,0,-0.039012194
-12.807329,-50.80046,0.9144712,10.0,8,-0.03900989
-1.268555,-5.0280404,-1.1971895,31.0,1,-0.039007585
-1.5662884,-6.203571,-1.2436931,28.0,2,-0.039002977
-1.9326022,-7.6431823,-1.2486601,31.0,3,-0.03899837
-13.184383,-52.104176,6.5992255,13.0,11,-0.038996067
-2.5353887,-10.012411,-1.2681725,43.0,4,-0.03899376
-14.525746,-57.321053,9.365732,18.0,12,-0.03899146
-3.7656128,-14.859746,-1.3411525,8.0,5,-0.038989156
-15.231242,-59.929333,-1.0793266,34.0,7,-0.03897994
-1.0660361,-4.170061,-1.1532978,31.0,0,-0.0389569
-12.844816,-50.209126,0.90462804,10.0,8,-0.038954593
-1.2885158,-5.033021,-1.199439,37.0,1,-0.03895229
-1.5752652,-6.148618,-1.233771,22.0,2,-0.038947683
-1.991672,-7.762674,-1.2693094,33.0,3,-0.038943075
-13.409619,-52.227036,6.6206746,13.0,11,-0.038940772
-2.596505,-10.1054,-1.2810906,46.0,4,-0.038938466
-3.8308568,-14.898609,-1.3458589,6.0,5,-0.03893386
-12.389948,-48.116207,-2.6039233,14.0,6,-0.03892925
-1.0941659,-4.2186737,-1.1677916,31.0,0,-0.0389016
-13.226973,-50.961437,0.9190088,10.0,8,-0.0388993
-1.296278,-4.9907694,-1.190441,41.0,1,-0.038896997
-1.5972124,-6.1449823,-1.2341527,37.0,2,-0.03889239
-2.0242298,-7.7767034,-1.272751,36.0,3,-0.03888778
-13.600851,-52.214485,6.625062,13.0,11,-0.038885474
-2.616243,-10.036727,-1.2735348,41.0,4,-0.038883172
-14.0809355,-53.980312,8.835732,16.0,12,-0.038880866
-3.905468,-14.971902,-1.3537029,6.0,5,-0.038878564
-12.605287,-48.25431,-2.6137626,14.0,6,-0.038873956
-1.111834,-4.2260385,-1.1708974,31.0,0,-0.038846307
-13.436355,-51.034847,0.9211729,10.0,8,-0.038844004
-1.3261027,-5.033325,-1.2016885,30.0,1,-0.0388417
-15.83907,-60.075825,3.2560296,34.0,9,-0.038839396
-1.6341687,-6.1982193,-1.2459828,24.0,2,-0.03883709
-2.054893,-7.782959,-1.2749411,36.0,3,-0.038832482
-2.6680057,-10.090866,-1.2815782,39.0,4,-0.038827874
-3.991851,-15.087228,-1.3653818,6.0,5,-0.038823266
-12.790014,-48.271797,-2.617112,14.0,6,-0.038818657
-1.128571,-4.229598,-1.1729679,31.0,0,-0.038791012
-13.917747,-52.12366,0.941697,11.0,8,-0.038788706
-1.3401436,-5.0154867,-1.1985391,33.0,1,-0.038786404
-14.821823,-55.431877,3.0071197,11.0,9,-0.038784098
-1.6634017,-6.220927,-1.2517071,33.0,2,-0.038781796
-2.0769389,-7.7566566,-1.2718123,30.0,3,-0.038777187
-13.878731,-51.796127,6.5841136,13.0,11,-0.03877488
-2.7114375,-10.112168,-1.2854779,31.0,4,-0.03877258
-14.378609,-53.58688,8.787551,16.0,12,-0.038770273
-4.0759883,-15.190586,-1.3760148,6.0,5,-0.03876797
-13.046549,-48.554756,-2.6349063,14.0,6,-0.038763363
-1.1604835,-4.2890363,-1.1905677,31.0,0,-0.038735714
-14.101177,-52.080547,0.9418016,22.0,8,-0.03873341
-1.3652866,-5.038992,-1.2052878,33.0,1,-0.038731106
-15.984216,-58.953686,3.2011814,15.0,9,-0.038728803
-1.6979499,-6.2624536,-1.2612475,36.0,2,-0.038726497
-2.1102123,-7.772236,-1.2755668,21.0,3,-0.03872189
-2.7555747,-10.135207,-1.2896215,37.0,4,-0.03871728
-14.557278,-53.50586,8.782545,16.0,12,-0.03871498
-4.1603723,-15.2916155,-1.3864735,6.0,5,-0.038712673
-13.252705,-48.643814,-2.6422334,14.0,6,-0.03870807
-1.1764702,-4.288685,-1.191603,31.0,0,-0.03868042
-14.305649,-52.11393,0.9433026,11.0,8,-0.038678113
-1.3906107,-5.0623827,-1.2120364,36.0,1,-0.03867581
-16.00886,-58.2389,3.1653836,13.0,9,-0.038673505
-1.70575,-6.205376,-1.2509438,35.0,2,-0.038671203
-2.1530573,-7.8219595,-1.2849529,27.0,3,-0.038666595
-2.7835505,-10.098735,-1.2862092,35.0,4,-0.038661987
-4.241802,-15.378795,-1.395712,6.0,5,-0.03865738
-4.5149326,-16.32457,-0.29564378,3.0,7,-0.038648162
-1.1981617,-4.308748,-1.1983322,35.0,0,-0.03862512
-14.385614,-51.69764,0.93667066,21.0,8,-0.03862282
-1.4260467,-5.1213264,-1.227333,31.0,1,-0.038620517
-16.241005,-58.286556,3.171036,14.0,9,-0.03861821
-1.7411017,-6.248556,-1.2608659,40.0,2,-0.03861591
-13.618876,-48.84318,4.4362273,16.0,10,-0.038613603
-2.185657,-7.833423,-1.2880815,27.0,3,-0.0386113
-2.8385499,-10.159695,-1.2952274,41.0,4,-0.038606692
-14.398576,-51.500507,8.469676,15.0,12,-0.038604386
-4.331937,-15.494375,-1.4075652,6.0,5,-0.038602084
-14.772457,-52.802254,10.657827,34.0,13,-0.038599778
-4.5407104,-16.21927,-0.88269836,87.0,6,-0.038597476
-4.5643306,-16.281755,-0.2951551,93.0,7,-0.038592868
-1.2158146,-4.3138366,-1.2009205,31.0,0,-0.038569827
-14.563822,-51.63941,0.93653107,10.0,8,-0.038567524
-1.4222131,-5.0394225,-1.208887,33.0,1,-0.03856522
-1.7655699,-6.251887,-1.262774,40.0,2,-0.03856061
-2.2011623,-7.783928,-1.2811985,21.0,3,-0.038556002
-14.438408,-51.024277,6.510992,12.0,11,-0.0385537
-2.859934,-10.100066,-1.2888902,39.0,4,-0.038551394
-14.3714695,-50.720123,8.349534,14.0,12,-0.03854909
-4.42456,-15.61526,-1.4199414,6.0,5,-0.038546786
-4.593481,-16.189873,-0.88196564,97.0,6,-0.038542178
-4.6145816,-16.24264,-0.29473624,100.0,7,-0.03853757
-1.2244987,-4.2872753,-1.1947087,31.0,0,-0.038514532
-14.681338,-51.369072,0.93255186,10.0,8,-0.038512226
-1.4290788,-4.996955,-1.199889,31.0,1,-0.038509924
-1.7992668,-6.28721,-1.2711695,38.0,2,-0.038505316
-2.1771693,-7.5976954,-1.2517889,21.0,3,-0.038500708
-2.8924341,-10.080482,-1.2876717,37.0,4,-0.0384961
-14.182088,-49.39374,8.139286,13.0,12,-0.038493793
-4.520829,-15.74526,-1.4331889,6.0,5,-0.03849149
-15.267585,-53.139374,10.747127,35.0,13,-0.038489185
-4.704049,-16.36185,-0.8922234,100.0,6,-0.038486883
-4.6640577,-16.201454,-0.2942825,100.0,7,-0.038482275
-1.252127,-4.329586,-1.2076497,32.0,0,-0.03845787
-14.222343,-49.145664,0.89303964,9.0,8,-0.03845557
-1.4640707,-5.055831,-1.2151856,30.0,1,-0.038453262
-1.8069863,-6.2318664,-1.2612475,38.0,2,-0.038448654
-15.543764,-53.606747,4.883162,20.0,10,-0.038446352
-2.2805164,-7.859826,-1.2962161,27.0,3,-0.038444046
-2.9408002,-10.122303,-1.2942526,39.0,4,-0.038439438
-14.336985,-49.31609,8.13428,13.0,12,-0.038437136
-4.6191726,-15.878605,-1.4467852,6.0,5,-0.03843483
-15.418958,-52.968887,10.723466,35.0,13,-0.038432527
-4.769513,-16.374096,-0.8937936,61.0,6,-0.03843022
-4.7194366,-16.191654,-0.2943872,97.0,7,-0.038425613
-1.269074,-4.3286757,-1.2086849,33.0,0,-0.038402576
-14.334826,-48.862953,0.8888511,9.0,8,-0.03840027
-1.4743584,-5.022383,-1.2084371,31.0,1,-0.038397968
-1.833137,-6.2365026,-1.2635372,38.0,2,-0.03839336
-15.712045,-53.45384,4.8744464,20.0,10,-0.038391054
-2.3271449,-7.9120584,-1.3062279,36.0,3,-0.03838875
-15.149047,-51.472054,6.5880136,13.0,11,-0.038386445
-2.9969478,-10.1762,-1.3025397,39.0,4,-0.038384143
-14.528802,-49.30111,8.140537,13.0,12,-0.038381837
-4.7145333,-15.987697,-1.4582899,6.0,5,-0.038379535
-4.7895164,-16.210686,-0.29505038,90.0,7,-0.03837032
-1.2970372,-4.364735,-1.220073,32.0,0,-0.038347278
-14.500137,-48.764084,0.88801336,9.0,8,-0.038344976
-1.4794186,-4.9721184,-1.1976395,28.0,1,-0.03834267
-1.8784243,-6.309095,-1.2795652,36.0,2,-0.03833806
-15.953368,-53.548645,4.888391,20.0,10,-0.03833576
-2.3629005,-7.9261928,-1.3099824,24.0,3,-0.038333453
-15.385264,-51.57597,6.6084876,13.0,11,-0.03833115
-3.0052683,-10.068136,-1.2901089,41.0,4,-0.038328845
-14.732018,-49.32324,8.153052,13.0,12,-0.038326543
-4.8153567,-16.121958,-1.4720606,4.0,5,-0.038324237
-4.858651,-16.225588,-0.29564378,90.0,7,-0.038315024
-1.3105955,-4.354631,-1.21852,40.0,0,-0.038291983
-14.670269,-48.713173,0.88801336,9.0,8,-0.038289677
-1.5113842,-5.0154366,-1.2093369,34.0,1,-0.038287375
-16.110893,-53.429245,2.9246383,11.0,9,-0.03828507
-1.9117721,-6.340092,-1.2871976,30.0,2,-0.038282767
-2.3985462,-7.944372,-1.3143625,33.0,3,-0.03827816
-15.6008005,-51.639767,6.6235995,13.0,11,-0.038275853
-3.0731366,-10.1658945,-1.3040022,33.0,4,-0.03827355
-14.900662,-49.260166,8.1511755,13.0,12,-0.03827125
-4.922942,-16.274778,-1.4875742,4.0,5,-0.038268942
-19.669476,-64.94357,-3.5562286,42.0,6,-0.038264334
-4.9320874,-16.264027,-0.296656,100.0,7,-0.038259726
-1.3347989,-4.379597,-1.2268023,32.0,0,-0.038236685
-14.845471,-48.678875,0.8883275,48.0,8,-0.038234383
-1.5772291,-5.16856,-1.2475786,33.0,1,-0.038232077
-16.177225,-53.01256,2.9047506,22.0,9,-0.038229775
-1.9126774,-6.263907,-1.2730777,38.0,2,-0.03822747
-2.4395473,-7.9793983,-1.3215585,40.0,3,-0.038222864
-3.1312206,-10.235375,-1.3142391,28.0,4,-0.038218256
-15.15529,-49.508923,8.200608,14.0,12,-0.03821595
-5.0293236,-16.419422,-1.5023906,4.0,5,-0.038213648
-15.952213,-52.04735,10.581504,34.0,13,-0.038211342
-19.925331,-64.96999,-3.5614622,42.0,6,-0.03820904
-5.0053544,-16.310669,-0.29780787,31.0,7,-0.03820443
-1.3527311,-4.386223,-1.2299082,33.0,0,-0.03818139
-15.047497,-48.761223,0.8907359,9.0,8,-0.038179085
-1.5765358,-5.10558,-1.2336316,25.0,1,-0.038176782
-17.77779,-57.573017,3.1578472,13.0,9,-0.03817448
-1.956042,-6.330684,-1.2879608,36.0,2,-0.038172174
-2.45315,-7.929748,-1.3146753,36.0,3,-0.038167566
-16.566532,-53.517826,6.878794,28.0,11,-0.038165264
-3.1704283,-10.242002,-1.3164327,41.0,4,-0.038162958
-15.18496,-49.024403,8.128649,27.0,12,-0.038160656
-5.132701,-16.56061,-1.5168586,4.0,5,-0.03815835
-16.473635,-53.119255,10.810475,35.0,13,-0.038156047
-20.140673,-64.90356,-3.5614622,42.0,6,-0.03815374
-1.3741738,-4.4038424,-1.2361197,33.0,0,-0.038126096
-15.341424,-49.13482,0.89848477,9.0,8,-0.03812379
-1.5742807,-5.0389414,-1.2187848,33.0,1,-0.038121488
-17.967924,-57.4763,3.1559632,13.0,9,-0.038119182
-1.9875689,-6.3578916,-1.2948298,34.0,2,-0.03811688
-16.479805,-52.683796,4.829474,39.0,10,-0.038114574
-2.5012653,-7.991322,-1.3262516,28.0,3,-0.03811227
-3.2126892,-10.251709,-1.3191139,30.0,4,-0.038107663
-15.434014,-49.2199,8.169948,13.0,12,-0.038105357
-5.2435613,-16.711782,-1.5323722,4.0,5,-0.038103055
-16.355822,-52.127728,10.619666,34.0,13,-0.03810075
-20.417065,-64.95226,-1.188439,44.0,7,-0.03809384
-1.3949639,-4.4135127,-1.240261,33.0,0,-0.038070798
-15.468255,-48.939865,0.89590186,9.0,8,-0.038068496
-1.5877467,-5.0204096,-1.2156355,30.0,1,-0.03806619
-18.139515,-57.32183,3.1509387,13.0,9,-0.038063888
-2.0345645,-6.425431,-1.3100946,42.0,2,-0.03806158
-2.5078526,-7.9105463,-1.3143625,21.0,3,-0.038056973
-3.2688644,-10.304767,-1.3274009,43.0,4,-0.038052365
-15.616488,-49.19961,8.175579,13.0,12,-0.038050063
-5.3669977,-16.89846,-1.5511979,4.0,5,-0.038047757
-16.398119,-51.599674,10.524261,34.0,13,-0.038045455
-16.878477,-53.047054,-0.97168016,24.0,7,-0.038038544
-1.4209563,-4.441736,-1.2495784,37.0,0,-0.038015503
-16.864351,-52.684227,0.9655719,11.0,8,-0.038013197
-1.6305081,-5.0906463,-1.2340814,33.0,1,-0.038010895
-16.911472,-52.799694,2.905588,11.0,9,-0.03800859
-2.0563815,-6.41642,-1.309713,42.0,2,-0.038006287
-2.5209663,-7.8566008,-1.3068537,21.0,3,-0.03800168
-16.802605,-52.334003,6.748881,13.0,11,-0.037999373
-3.3047903,-10.287046,-1.3266698,35.0,4,-0.03799707
-5.5070477,-17.131897,-1.5743814,4.0,5,-0.037992463
-16.531242,-51.396343,10.494495,34.0,13,-0.03799016
-17.00225,-52.79747,-0.9681897,24.0,7,-0.037983246
-1.4322865,-4.4238844,-1.2459549,42.0,0,-0.037960205
-16.06946,-49.63353,0.91063166,30.0,8,-0.037957903
-1.6461794,-5.081504,-1.2331817,30.0,1,-0.037955597
-15.294901,-47.184925,2.5995271,16.0,9,-0.037953295
-2.077555,-6.4054675,-1.3089497,42.0,2,-0.03795099
-2.58847,-7.975965,-1.3281288,21.0,3,-0.03794638
-16.990774,-52.32331,6.7547307,13.0,11,-0.03794408
-3.354834,-10.325116,-1.333007,41.0,4,-0.037941776
-5.648788,-17.36456,-1.5975647,4.0,5,-0.037937168
-16.70645,-51.35617,10.497548,34.0,13,-0.037934862
-17.062521,-52.357548,-0.96120876,23.0,7,-0.03792795
-1.4451454,-4.413602,-1.2444019,37.0,0,-0.03790491
-16.306128,-49.770966,0.91419196,10.0,8,-0.037902605
-1.6784757,-5.1201696,-1.2439793,30.0,1,-0.037900303
-15.472581,-47.171104,2.6017253,16.0,9,-0.037897997
-2.0883822,-6.3668303,-1.3024622,28.0,2,-0.037895694
-17.023666,-51.869293,4.7761345,19.0,10,-0.037893392
-2.6335528,-8.01943,-1.3368891,31.0,3,-0.037891086
-16.09258,-48.974693,6.3296504,24.0,11,-0.037888784
-3.3834143,-10.290714,-1.3300822,41.0,4,-0.037886478
-5.776697,-17.559599,-1.617262,4.0,5,-0.03788187
-16.921225,-51.4057,10.519682,34.0,13,-0.037879568
-17.207611,-52.183716,-0.95911443,23.0,7,-0.037872653
-1.4641885,-4.4195337,-1.2475078,38.0,0,-0.037849616
-17.359396,-52.367317,0.96298885,11.0,8,-0.03784731
-1.7153572,-5.171619,-1.2579263,28.0,1,-0.037845008
-17.374125,-52.350533,2.8907244,10.0,9,-0.037842702
-2.1143055,-6.370682,-1.304752,24.0,2,-0.0378404
-18.932613,-57.013206,5.25584,23.0,10,-0.037838094
-2.6627755,-8.013937,-1.3375148,25.0,3,-0.03783579
-16.349867,-49.17817,6.363286,12.0,11,-0.037833486
-3.4318457,-10.316513,-1.3349569,30.0,4,-0.037831184
-5.911576,-17.760504,-1.6376563,4.0,5,-0.037826575
-17.263086,-51.83434,10.619666,34.0,13,-0.03782427
-17.321308,-51.918472,-0.95534474,23.0,7,-0.03781736
-1.4685556,-4.381425,-1.2381904,32.0,0,-0.037794318
-1.7507578,-5.217329,-1.2705235,30.0,1,-0.03778971
-17.69661,-52.706116,2.9137523,11.0,9,-0.037787408
-2.1565266,-6.4228196,-1.3169638,29.0,2,-0.0377851
-19.169588,-57.060085,5.266299,23.0,10,-0.0377828
-2.686956,-7.993359,-1.3356376,34.0,3,-0.037780493
-3.469104,-10.308233,-1.3354443,37.0,4,-0.037775885
-6.072724,-18.03432,-1.664849,2.0,5,-0.037771277
-17.391258,-51.61749,10.58761,34.0,13,-0.037768975
-18.97322,-56.21548,-1.0356258,30.0,7,-0.03776206
-1.496247,-4.4128633,-1.2485431,35.0,0,-0.037739024
-19.520218,-57.537697,1.0605478,31.0,8,-0.037736718
-1.75142,-5.1595173,-1.2579263,40.0,1,-0.037734415
-18.748903,-55.200863,3.0552688,12.0,9,-0.03773211
-2.192823,-6.4561496,-1.3253593,36.0,2,-0.037729807
-2.7288327,-8.025076,-1.3425208,34.0,3,-0.0377252
-3.518499,-10.3355255,-1.3405629,30.0,4,-0.03772059
-6.2551246,-18.363808,-1.6972709,2.0,5,-0.037715983
-17.641005,-51.76088,10.629588,34.0,13,-0.037713677
-19.024618,-55.725,-1.0278071,29.0,7,-0.037706766
-1.5078819,-4.396649,-1.2454373,34.0,0,-0.037683725
-18.600018,-54.20271,1.0002673,12.0,8,-0.037681423
-1.7846076,-5.197607,-1.268724,34.0,1,-0.037679117
-2.2064166,-6.422461,-1.3200166,36.0,2,-0.03767451
-2.7516892,-8.000558,-1.3400177,34.0,3,-0.0376699
-16.905294,-49.124397,6.3788857,24.0,11,-0.0376676
-3.540337,-10.281887,-1.3352007,33.0,4,-0.037665293
-18.040287,-52.363113,8.771907,16.0,12,-0.03766299
-6.4152393,-18.620653,-1.723069,2.0,5,-0.03766069
-19.221624,-55.665813,-1.0279467,29.0,7,-0.03765147
-1.525119,-4.396835,-1.2469902,35.0,0,-0.03762843
-1.8084928,-5.2079144,-1.2727731,30.0,1,-0.037623823
-16.40819,-47.22405,2.620043,17.0,9,-0.037621517
-2.2410638,-6.449956,-1.3272674,25.0,2,-0.037619215
-2.7906327,-8.022621,-1.3453366,37.0,3,-0.037614606
-16.831322,-48.36017,6.28724,23.0,11,-0.037612304
-3.5605385,-10.224474,-1.329351,26.0,4,-0.037609998
-18.52194,-53.157898,8.915827,16.0,12,-0.037607696
-6.9036894,-19.813562,-1.8356742,15.0,5,-0.03760539
-19.376268,-55.4851,-1.0258524,29.0,7,-0.037596174
-1.5340624,-4.373255,-1.2418139,32.0,0,-0.037573133
-16.997854,-48.42985,0.89590186,9.0,8,-0.03757083
-1.8357005,-5.2273107,-1.2790717,35.0,1,-0.03756853
-16.517324,-47.008198,2.6112504,8.0,9,-0.037566222
-2.2837412,-6.499513,-1.3390976,29.0,2,-0.03756392
-2.8140304,-7.999787,-1.3431464,43.0,3,-0.03755931
-16.945992,-48.14757,6.2672534,23.0,11,-0.037557006
-3.5177407,-9.989169,-1.3003459,22.0,4,-0.037554704
-18.514378,-52.54517,8.823843,16.0,12,-0.037552398
-6.98274,-19.817532,-1.8382889,17.0,5,-0.037550095
-19.619099,-55.55666,-1.0284353,29.0,7,-0.03754088
-1.553194,-4.378797,-1.2449197,38.0,0,-0.03751784
-17.165466,-48.366447,0.895832,9.0,8,-0.037515536
-1.8558927,-5.2263803,-1.2804214,32.0,1,-0.03751323
-16.592375,-46.69995,2.5973291,25.0,9,-0.037510928
-2.301156,-6.4767027,-1.3360447,31.0,2,-0.03750862
-18.586178,-52.28267,4.8545747,19.0,10,-0.03750632
-2.8399522,-7.9843326,-1.3422079,37.0,3,-0.037504014
-18.425135,-51.772396,6.7474184,13.0,11,-0.03750171
-3.595206,-10.096515,-1.3159453,22.0,4,-0.037499405
-7.094672,-19.913153,-1.8494449,18.0,5,-0.037494797
-19.861319,-55.62344,-1.0309485,30.0,7,-0.03748558
-1.5789038,-4.402444,-1.2532018,35.0,0,-0.037462544
-17.284891,-48.168835,0.89328396,19.0,8,-0.037460238
-1.8635887,-5.1905246,-1.2732229,18.0,1,-0.037457936
-16.70869,-46.512054,2.5901067,50.0,9,-0.03745563
-2.326404,-6.476021,-1.3375711,31.0,2,-0.037453327
-2.8684742,-7.976229,-1.3425208,34.0,3,-0.03744872
-3.651273,-10.141803,-1.3235012,22.0,4,-0.03744411
-17.9395,-49.801617,8.383949,14.0,12,-0.037441805
-7.23571,-20.086962,-1.8679218,13.0,5,-0.037439503
-18.672142,-51.807117,10.704385,35.0,13,-0.037437197
-1.6015059,-4.4168835,-1.2588959,34.0,0,-0.037407245
-17.312435,-47.720966,0.8860936,19.0,8,-0.037404943
-1.9069617,-5.253596,-1.2903192,43.0,1,-0.037402637
-18.8427,-51.882553,2.892818,10.0,9,-0.037400335
-2.3858569,-6.5693536,-1.3585601,40.0,2,-0.03739803
-2.8908985,-7.951316,-1.3400177,34.0,3,-0.03739342
-18.12244,-49.81805,6.5090423,12.0,11,-0.03739112
-3.75251,-10.3099375,-1.3471439,18.0,4,-0.037388813
-18.097008,-49.69414,8.376441,14.0,12,-0.03738651
-7.3978214,-20.314318,-1.891454,15.0,5,-0.037384205
-1.6169137,-4.4112663,-1.2588959,34.0,0,-0.03735195
-17.253761,-47.046326,0.87467974,18.0,8,-0.037349645
-1.8950803,-5.164582,-1.2700737,33.0,1,-0.037347343
-17.22023,-46.904247,2.6185775,8.0,9,-0.037345037
-2.4026833,-6.5443983,-1.3551255,27.0,2,-0.037342735
-2.9206817,-7.9467382,-1.3409564,37.0,3,-0.037338126
-3.788476,-10.296776,-1.3471439,11.0,4,-0.03733352
-18.561077,-50.420372,8.509723,15.0,12,-0.037331216
-7.62906,-20.724016,-1.9320685,16.0,5,-0.03732891
-1.6255898,-4.3874803,-1.2537196,34.0,0,-0.037296653
-17.43317,-47.02706,0.87544763,9.0,8,-0.03729435
-1.9388484,-5.227365,-1.2871699,29.0,1,-0.03729205
-17.329653,-46.697796,2.610413,8.0,9,-0.037289742
-2.3763335,-6.4034486,-1.327649,29.0,2,-0.03728744
-2.958721,-7.9642706,-1.3456494,43.0,3,-0.037282832
-18.436596,-49.601,6.4973426,12.0,11,-0.037280526
-3.757967,-10.104872,-1.3237449,11.0,4,-0.037278224
-18.832026,-50.610764,8.552899,15.0,12,-0.037275918
-7.801406,-20.966154,-1.9571693,20.0,5,-0.037273616
-18.918373,-50.78856,-2.8403773,40.0,6,-0.037269007
-21.70079,-58.19618,-1.0841435,35.0,7,-0.0372644
-1.6490256,-4.4034886,-1.2599311,33.0,0,-0.03724136
-17.616165,-47.016483,0.87639004,27.0,8,-0.037239056
-1.9475063,-5.1950192,-1.2808713,29.0,1,-0.03723675
-19.43687,-51.820774,2.9005635,10.0,9,-0.037234448
-2.4365923,-6.496216,-1.348638,38.0,2,-0.037232142
-2.9899747,-7.963142,-1.3472137,37.0,3,-0.037227534
-18.638939,-49.61439,6.50758,25.0,11,-0.03722523
-4.127769,-10.981753,-1.4404957,9.0,4,-0.037222926
-19.524525,-51.916634,8.785048,32.0,12,-0.037220623
-7.93416,-21.097307,-1.9719858,25.0,5,-0.037218317
-18.987873,-50.43623,-2.8243625,59.0,6,-0.03721371
-9.7952585,-25.977242,7.4389772,11.0,15,-0.0372068
-1.6705405,-4.413967,-1.2645899,33.0,0,-0.037186064
-17.795042,-46.99398,0.87712306,9.0,8,-0.037183758
-1.9683908,-5.1954784,-1.2826709,21.0,1,-0.037181456
-19.58224,-51.659237,2.89533,10.0,9,-0.03717915
-2.4536858,-6.472985,-1.3455851,38.0,2,-0.037176847
-3.0233607,-7.96743,-1.3497167,37.0,3,-0.03717224
-18.845835,-49.63811,6.5192795,12.0,11,-0.037169933
-4.1322412,-10.878203,-1.4287963,15.0,4,-0.03716763
-8.02191,-21.106731,-1.975472,34.0,5,-0.037163023
-8.472758,-22.281265,4.633606,13.0,13,-0.037160717
-22.372732,-58.742176,-1.0971979,36.0,7,-0.037153807
-9.9189005,-26.029543,7.463824,33.0,15,-0.0371515
-1.6880083,-4.4135222,-1.2661428,30.0,0,-0.037158728
-21.545195,-56.30332,1.0522754,14.0,8,-0.037156425
-2.0136883,-5.259553,-1.300217,30.0,1,-0.03715412
-21.208502,-55.36553,3.107186,12.0,9,-0.037151817
-2.4657326,-6.43688,-1.3398608,40.0,2,-0.03714951
-19.119308,-49.88555,4.673988,18.0,10,-0.03714721
-3.0985398,-8.080404,-1.3706789,46.0,3,-0.037144903
-18.976328,-49.460823,6.504655,12.0,11,-0.0371426
-4.23208,-11.024945,-1.4500016,11.0,4,-0.037140295
-8.128394,-21.164158,-1.9834903,34.0,5,-0.037135687
-8.691324,-22.618074,4.7099295,14.0,13,-0.037133384
-26.691734,-69.425674,-3.898087,53.0,6,-0.03713108
-9.000327,-23.37347,6.711178,10.0,15,-0.037124168
-1.704797,-4.411207,-1.2671782,33.0,0,-0.037103433
-19.75257,-51.08377,0.95600796,11.0,8,-0.037101127
-2.0425818,-5.279754,-1.3069657,29.0,1,-0.037098825
-20.020273,-51.722427,2.9066346,11.0,9,-0.03709652
-2.4903116,-6.433727,-1.3410057,23.0,2,-0.037094217
-20.0186,-51.691303,4.849694,19.0,10,-0.03709191
-3.1381476,-8.09901,-1.3756849,31.0,3,-0.03708961
-19.096476,-49.259163,6.4868617,25.0,11,-0.037087303
-4.303559,-11.09524,-1.4612136,12.0,4,-0.037085
-23.45463,-60.438354,10.268046,31.0,12,-0.037082694
-8.206549,-21.1468,-1.9845362,31.0,5,-0.037080392
-8.650132,-22.278303,4.645436,20.0,13,-0.037078086
-22.63067,-58.25489,-3.2752893,33.0,6,-0.037075784
-9.060847,-23.2879,6.6956487,30.0,15,-0.03706887
-1.7117519,-4.383635,-1.2609664,34.0,0,-0.037048135
-19.911846,-50.966084,0.9551004,11.0,8,-0.037045833
-2.0496485,-5.2435517,-1.2997673,29.0,1,-0.037043527
-20.085033,-51.356476,2.8899918,21.0,9,-0.037041225
-2.5649548,-6.558468,-1.3688638,27.0,2,-0.03703892
-3.1671185,-8.089847,-1.3759978,37.0,3,-0.03703431
-19.701979,-50.29937,6.6328616,13.0,11,-0.03703201
-4.357473,-11.118963,-1.4663321,14.0,4,-0.037029702
-22.690536,-57.869705,9.845048,25.0,12,-0.0370274
-8.291224,-21.14585,-1.9871509,25.0,5,-0.037025094
-8.735731,-22.26808,4.649634,20.0,13,-0.03702279
-22.83535,-58.179253,-3.2754984,33.0,6,-0.037020486
-10.094948,-25.706438,6.376013,2.0,14,-0.037018184
-10.224856,-26.010548,7.488671,11.0,15,-0.037013575
-1.7483127,-4.4315443,-1.2764956,30.0,0,-0.03699284
-20.104317,-50.933468,0.9557985,22.0,8,-0.036990535
-2.085118,-5.2798653,-1.3105649,29.0,1,-0.036988232
-20.210602,-51.150455,2.8823507,10.0,9,-0.036985926
-2.5647461,-6.4910455,-1.356652,19.0,2,-0.036983624
-19.66995,-49.756725,4.6809607,18.0,10,-0.03698132
-3.1779003,-8.034657,-1.3684888,40.0,3,-0.036979016
-19.833612,-50.119545,6.618237,13.0,11,-0.03697671
-4.417451,-11.157208,-1.4734005,12.0,4,-0.036974408
-22.240566,-56.144615,9.564717,21.0,12,-0.036972106
-8.390671,-21.181608,-1.9932518,25.0,5,-0.0369698
-8.8625965,-22.36156,4.675584,21.0,13,-0.036967497
-10.142222,-25.564169,6.3494687,34.0,14,-0.03696289
-23.102188,-58.201042,-1.0930094,35.0,7,-0.036960583
-1.7408832,-4.3679886,-1.2599311,33.0,0,-0.036937542
-20.29383,-50.892704,0.956357,11.0,8,-0.03693524
-2.1085913,-5.285225,-1.3137141,26.0,1,-0.036932934
-20.426044,-51.172348,2.8875844,10.0,9,-0.03693063
-2.6448855,-6.626099,-1.3867998,24.0,2,-0.036928326
-19.873066,-49.761772,4.687933,18.0,10,-0.036926024
-3.2176557,-8.052864,-1.3734949,37.0,3,-0.03692372
-19.852224,-49.659233,6.5665646,26.0,11,-0.036921415
-4.479223,-11.198859,-1.4809563,10.0,4,-0.036919113
-22.34834,-55.84657,9.527173,20.0,12,-0.036916807
-8.475658,-21.17994,-1.9958665,23.0,5,-0.036914505
-9.063924,-22.638508,4.7400775,49.0,13,-0.0369122
-10.289391,-25.67332,6.385461,16.0,14,-0.03690759
-21.91943,-54.664097,-1.0280166,29.0,7,-0.03690529
-10.548617,-26.293533,7.591163,5.0,15,-0.036902983
-1.7943593,-4.456865,-1.287366,33.0,0,-0.036882248
-20.507967,-50.91244,0.95806736,22.0,8,-0.03687994
-2.1211991,-5.263373,-1.310115,37.0,1,-0.03687764
-21.771194,-53.994102,3.051082,12.0,9,-0.036875337
-2.66286,-6.6040807,-1.3841285,36.0,2,-0.03687303
-19.94975,-49.451893,4.6652727,18.0,10,-0.03687073
-3.23983,-8.026929,-1.370992,37.0,3,-0.036868423
-20.026928,-49.59332,6.567052,26.0,11,-0.03686612
-4.546546,-11.253097,-1.4902185,12.0,4,-0.036863815
-22.920698,-56.702236,9.686736,23.0,12,-0.036861513
-8.625699,-21.338638,-2.0136464,24.0,5,-0.036859207
-9.113448,-22.533926,4.7248125,49.0,13,-0.036856905
-10.327756,-25.510805,6.3539677,20.0,14,-0.036852296
-22.098099,-54.5576,-1.0274581,29.0,7,-0.03684999
-9.253062,-22.833263,6.6014385,5.0,15,-0.03684769
-1.8135445,-4.459522,-1.2899542,31.0,0,-0.036826953
-20.650892,-50.75534,0.95646167,22.0,8,-0.036824647
-2.152049,-5.28662,-1.3177633,29.0,1,-0.036822345
-22.061995,-54.169342,3.0653174,12.0,9,-0.03682004
-2.70515,-6.6420197,-1.3940506,29.0,2,-0.036817737
-20.113222,-49.359814,4.663181,18.0,10,-0.03681543
-3.273797,-8.030204,-1.3734949,37.0,3,-0.03681313
-20.364862,-49.927483,6.6206746,13.0,11,-0.036810823
-4.6037993,-11.281268,-1.4960682,12.0,4,-0.03680852
-23.172255,-56.75355,9.709263,23.0,12,-0.036806215
-8.722729,-21.363733,-2.0188756,24.0,5,-0.036803912
-9.252189,-22.649193,4.755724,21.0,13,-0.036801606
-10.42707,-25.499851,6.360266,32.0,14,-0.036797
-22.335352,-54.594875,-1.0296222,29.0,7,-0.036794696
-9.329779,-22.793674,6.599368,45.0,15,-0.03679239
-1.7916663,-4.3620276,-1.2635547,27.0,0,-0.036771655
-22.868769,-55.649147,1.0501812,14.0,8,-0.036769353
-2.1586337,-5.250238,-1.3105649,29.0,1,-0.036767047
-22.255505,-54.10308,3.0659454,12.0,9,-0.036764745
-2.731306,-6.6397986,-1.3955771,31.0,2,-0.03676244
-20.18075,-49.03505,4.639126,18.0,10,-0.036760136
-3.291277,-7.9931555,-1.3691146,59.0,3,-0.03675783
-4.6741657,-11.340377,-1.5060616,12.0,4,-0.036753222
-22.919874,-55.58026,9.522167,20.0,12,-0.03675092
-8.759269,-21.24106,-2.01016,21.0,5,-0.036748614
-9.328944,-22.611313,4.7545786,36.0,13,-0.036746312
-10.664787,-25.823536,6.450247,34.0,14,-0.036741704
-22.402073,-54.21718,-1.0239676,29.0,7,-0.0367394
-9.427741,-22.8056,6.612309,40.0,15,-0.036737096
-1.8261275,-4.402142,-1.2770132,33.0,0,-0.03671636
-22.78387,-54.896687,1.0374758,13.0,8,-0.036714055
-2.1986194,-5.2948637,-1.323612,27.0,1,-0.036711752
-22.4787,-54.108063,3.0706553,24.0,9,-0.036709446
-2.77179,-6.671924,-1.4043542,27.0,2,-0.036707144
-20.347212,-48.953266,4.63808,18.0,10,-0.03670484
-3.3092976,-7.9579077,-1.3650473,50.0,3,-0.036702536
-22.786274,-54.767452,7.2834,31.0,11,-0.03670023
-4.745,-11.39913,-1.5160547,10.0,4,-0.036697928
-23.1259,-55.529095,9.527173,20.0,12,-0.036695622
-8.815744,-21.168053,-2.006151,18.0,5,-0.03669332
-9.323999,-22.377455,4.712219,21.0,13,-0.036691017
-10.5485735,-25.291544,6.3265233,2.0,14,-0.03668641
-22.514183,-53.954105,-1.0204772,29.0,7,-0.036684103
-9.516219,-22.793945,6.6185207,15.0,15,-0.0366818
-1.834765,-4.3797045,-1.2723545,30.0,0,-0.036661062
-2.2321606,-5.3230996,-1.33261,32.0,1,-0.036656454
-22.672073,-54.04032,3.0712836,24.0,9,-0.036654152
-2.8064556,-6.689364,-1.4100785,29.0,2,-0.036651846
-22.811274,-54.345524,5.156482,22.0,10,-0.036649544
-3.354648,-7.9881964,-1.3722433,40.0,3,-0.036647238
-23.042671,-54.84314,7.3041177,15.0,11,-0.036644936
-4.807838,-11.437398,-1.5233669,10.0,4,-0.036642633
-23.334908,-55.48444,9.53343,20.0,12,-0.036640327
-8.989221,-21.374067,-2.028637,24.0,5,-0.036638025
-9.479721,-22.52935,4.7511444,21.0,13,-0.03663572
-9.6159935,-22.808651,6.6324973,5.0,15,-0.036626503
-1.8711163,-4.4230905,-1.2868483,31.0,0,-0.036605768
-22.985727,-54.309055,1.0293778,13.0,8,-0.036603462
-2.2666852,-5.3529596,-1.342058,24.0,1,-0.03660116
-22.855118,-53.94798,3.070551,12.0,9,-0.036598854
-2.8313205,-6.6831427,-1.4108418,36.0,2,-0.03659655
-20.775558,-49.015476,4.657603,18.0,10,-0.03659425
-3.3578322,-7.9182415,-1.3622315,37.0,3,-0.036591943
-4.877208,-11.489982,-1.5326289,10.0,4,-0.036587335
-23.523806,-55.391747,9.531553,20.0,12,-0.036585033
-9.076235,-21.371902,-2.031426,24.0,5,-0.036582727
-9.541413,-22.45637,4.7427487,42.0,13,-0.036580425
-9.352025,-21.999954,-1.2528182,28.0,6,-0.03657812
-9.696785,-22.799925,5.7200556,13.0,14,-0.036575817
-22.749369,-53.464405,-1.0141943,28.0,7,-0.03657351
-9.67966,-22.737621,6.621627,25.0,15,-0.03657121
-1.8819909,-4.4058733,-1.2837424,31.0,0,-0.036550473
-23.564945,-55.14054,1.0466906,13.0,8,-0.036548167
-2.289187,-5.3539743,-1.3443075,27.0,1,-0.036545865
-2.844594,-6.649753,-1.4058808,27.0,2,-0.036541257
-21.098604,-49.298008,4.691419,18.0,10,-0.03653895
-3.4095562,-7.962766,-1.3719305,34.0,3,-0.03653665
-23.387459,-54.59335,7.292418,15.0,11,-0.036534343
-4.9516935,-11.553168,-1.5433534,9.0,4,-0.03653204
-9.177479,-21.40235,-2.0373526,24.0,5,-0.036527433
-10.979731,-25.592953,5.4132514,35.0,13,-0.036525127
-9.383857,-21.862562,-1.2468519,45.0,6,-0.036522824
-9.753245,-22.71222,5.7065587,39.0,14,-0.03652052
-10.265532,-23.882185,6.965338,10.0,15,-0.03651591
-1.9019492,-4.40992,-1.2868483,30.0,0,-0.036495175
-26.764662,-62.02763,1.1791893,32.0,8,-0.036492873
-2.3256273,-5.3871007,-1.3546553,28.0,1,-0.036490567
-23.053799,-53.37639,3.0471044,12.0,9,-0.036488265
-2.8833578,-6.675829,-1.4135132,40.0,2,-0.03648596
-23.284277,-53.884197,5.135565,22.0,10,-0.036483657
-3.4302757,-7.934498,-1.3691146,37.0,3,-0.03648135
-23.661417,-54.704506,7.318255,16.0,11,-0.03647905
-5.0251017,-11.61233,-1.5535904,9.0,4,-0.036476742
-24.120274,-55.711994,9.615402,22.0,12,-0.03647444
-9.27113,-21.414066,-2.041536,24.0,5,-0.036472134
-11.048708,-25.50763,5.4033294,8.0,13,-0.036469832
-9.449793,-21.805845,-1.2454911,38.0,6,-0.036467526
-9.833238,-22.679823,5.7070084,54.0,14,-0.036465224
-9.531008,-21.972239,-0.41805494,35.0,7,-0.036462918
-9.901228,-22.814806,6.664073,15.0,15,-0.036460616
-1.92273,-4.4156528,-1.2904718,28.0,0,-0.03643988
-2.3218372,-5.3271437,-1.341608,37.0,1,-0.036435273
-23.40283,-53.669067,3.0684574,12.0,9,-0.036432967
