x,y,z,intensity,ring,time
34.04971,-29.829264,7.169705,30.0,12,-0.060848057
3.64021,-3.1890075,-0.4234026,45.0,5,-0.06084575
4.2757635,-3.7484238,-0.29800096,42.0,6,-0.060841143
42.02902,-36.85846,12.905891,8.0,14,-0.06083884
5.3845363,-4.723774,-0.12502904,33.0,7,-0.060836535
2.1060395,-1.8528075,-0.7516105,38.0,0,-0.060813494
6.797195,-5.981999,0.158049,60.0,8,-0.06081119
2.2890801,-2.0152571,-0.7040968,39.0,1,-0.060808886
8.927196,-7.862078,0.62342596,43.0,9,-0.060806584
2.5518224,-2.2473605,-0.6609624,33.0,2,-0.060804278
14.593928,-12.857226,1.7016286,23.0,10,-0.060801975
2.8379917,-2.501146,-0.59914404,45.0,3,-0.060799673
33.8295,-29.824709,5.5375,27.0,11,-0.060797367
3.1667001,-2.792804,-0.5184322,35.0,4,-0.060795065
34.06388,-30.052486,7.1947346,30.0,12,-0.06079276
3.6514666,-3.2214668,-0.42601725,46.0,5,-0.060790457
34.064533,-30.06364,8.831404,23.0,13,-0.06078815
4.304576,-3.8003383,-0.30093178,42.0,6,-0.06078585
34.00969,-30.036364,10.47552,21.0,14,-0.060783543
5.390493,-4.7624006,-0.12555261,30.0,7,-0.06078124
41.855663,-36.99171,14.967505,33.0,15,-0.060778935
2.102451,-1.8627101,-0.75264585,34.0,0,-0.0607582
6.8690567,-6.087922,0.16021308,58.0,8,-0.060755894
2.2849479,-2.0258205,-0.7049966,29.0,1,-0.06075359
8.944524,-7.932949,0.6265661,39.0,9,-0.06075129
2.5557125,-2.2666757,-0.66401535,30.0,2,-0.060748983
15.162992,-13.45287,1.773445,28.0,10,-0.06074668
2.8381083,-2.5189047,-0.6010213,41.0,3,-0.060744375
33.89886,-30.096817,5.566017,18.0,11,-0.060742073
3.174743,-2.8196597,-0.5213571,40.0,4,-0.060739767
33.92481,-30.141035,7.187539,30.0,12,-0.060737465
3.6610515,-3.2527196,-0.42845765,46.0,5,-0.06073516
33.859604,-30.093676,8.805454,23.0,13,-0.060732856
4.30621,-3.8286114,-0.3019785,49.0,6,-0.06073055
33.856586,-30.112156,10.460674,63.0,14,-0.06072825
5.393258,-4.798468,-0.12600638,50.0,7,-0.060725942
41.887905,-37.281433,15.025481,33.0,15,-0.06072364
2.106027,-1.8790402,-0.7562693,35.0,0,-0.060702905
6.8865533,-6.1464834,0.16112062,67.0,8,-0.0607006
2.292399,-2.0467632,-0.7094956,32.0,1,-0.060698297
8.98381,-8.0239935,0.63127637,42.0,9,-0.06069599
2.5536413,-2.2808142,-0.6655418,31.0,2,-0.06069369
15.297201,-13.667669,1.794711,28.0,10,-0.060691383
2.841081,-2.5393274,-0.60352427,47.0,3,-0.06068908
33.946022,-30.351244,5.591122,9.0,11,-0.060686775
3.1707995,-2.836018,-0.5223321,47.0,4,-0.060684472
33.675117,-30.130188,7.156878,30.0,12,-0.060682166
3.6496754,-3.2654793,-0.42845765,48.0,5,-0.060679864
33.663647,-30.130507,8.781794,46.0,13,-0.06067756
4.2794275,-3.8316293,-0.30103645,43.0,6,-0.060675256
32.865788,-29.437054,10.1862335,10.0,14,-0.06067295
5.398816,-4.837281,-0.12652995,35.0,7,-0.060670648
41.452534,-37.15407,14.915742,33.0,15,-0.06066834
2.108077,-1.8941274,-0.75937515,37.0,0,-0.060647607
6.862081,-6.167811,0.16105081,67.0,8,-0.060645305
2.289588,-2.0586617,-0.7108453,29.0,1,-0.060643
8.976537,-8.074002,0.63274175,36.0,9,-0.060640696
2.5500436,-2.2936528,-0.66668665,28.0,2,-0.06063839
15.364923,-13.82493,1.8083073,28.0,10,-0.06063609
2.833668,-2.5505505,-0.6038371,37.0,3,-0.060633782
33.969685,-30.586443,5.6125712,9.0,11,-0.06063148
3.1638308,-2.8497257,-0.5228196,36.0,4,-0.060629174
33.732635,-30.39433,7.1916065,20.0,12,-0.060626872
3.6574967,-3.2955372,-0.4307237,45.0,5,-0.060624566
33.56702,-30.25572,8.784083,46.0,13,-0.060622264
4.303109,-3.8799803,-0.30365324,42.0,6,-0.060619958
32.984234,-29.751295,10.255069,15.0,14,-0.060617656
5.433861,-4.9029827,-0.12775162,27.0,7,-0.060615353
33.4424,-30.185738,12.0713215,31.0,15,-0.060613047
2.0885599,-1.8898089,-0.75471634,32.0,0,-0.060592312
6.887952,-6.234669,0.16216777,65.0,8,-0.060590006
2.2939444,-2.077105,-0.7144445,31.0,1,-0.060587704
9.034155,-8.183056,0.6388127,41.0,9,-0.0605854
2.546387,-2.3064942,-0.66783154,23.0,2,-0.060583096
15.381536,-13.937344,1.815977,29.0,10,-0.06058079
2.8437743,-2.577673,-0.6079044,27.0,3,-0.060578488
3.2097366,-2.911432,-0.5320816,34.0,4,-0.06057388
3.657775,-3.3189948,-0.43211815,38.0,5,-0.06056927
33.568775,-30.470352,8.812323,23.0,13,-0.06056697
4.302848,-3.907061,-0.3045953,40.0,6,-0.060564663
33.041737,-30.013002,10.305457,35.0,14,-0.06056236
5.4403925,-4.9434376,-0.12831008,27.0,7,-0.060560055
33.36685,-30.329578,12.082191,31.0,15,-0.060557753
2.0819507,-1.8970879,-0.75471634,26.0,0,-0.060537014
6.9016156,-6.2910047,0.16300547,63.0,8,-0.060534712
2.2981997,-2.0956042,-0.71804374,33.0,1,-0.060532406
9.064559,-8.26838,0.6429996,37.0,9,-0.060530104
2.5499241,-2.3259535,-0.6708845,22.0,2,-0.060527798
15.382831,-14.036611,1.8219036,29.0,10,-0.060525496
2.850808,-2.602233,-0.61134595,25.0,3,-0.06052319
3.2215393,-2.9427009,-0.5357377,33.0,4,-0.060518585
3.6638167,-3.3478703,-0.4342099,38.0,5,-0.060513977
4.2729697,-3.9072313,-0.3034439,36.0,6,-0.06050937
33.07481,-30.254425,10.348648,35.0,14,-0.060507063
5.4585104,-4.994797,-0.12914781,25.0,7,-0.06050476
33.366226,-30.542387,12.120497,32.0,15,-0.060502455
2.0824325,-1.9108741,-0.75730455,24.0,0,-0.06048172
6.886979,-6.3218193,0.16318,59.0,8,-0.060479414
2.2908707,-2.1036136,-0.71804374,29.0,1,-0.06047711
9.103302,-8.3621235,0.6478145,42.0,9,-0.060474806
2.543235,-2.3361683,-0.6712661,21.0,2,-0.060472503
15.486316,-14.230422,1.8400321,21.0,10,-0.0604702
2.8504329,-2.6201894,-0.61322314,23.0,3,-0.060467895
3.2317014,-2.9727433,-0.53915,30.0,4,-0.060463287
3.696092,-3.4011126,-0.43943924,39.0,5,-0.06045868
4.272528,-3.9342995,-0.30438596,36.0,6,-0.06045407
32.85434,-30.264067,10.312656,41.0,14,-0.06045177
5.457218,-5.028726,-0.12953176,18.0,7,-0.060449462
33.273617,-30.671764,12.125672,32.0,15,-0.06044716
2.082844,-1.924687,-0.75989276,24.0,0,-0.060426425
6.8780856,-6.358037,0.16349414,61.0,8,-0.06042412
2.2763598,-2.1049824,-0.71579427,25.0,1,-0.060421817
9.116577,-8.43318,0.65085006,43.0,9,-0.06041951
2.5408297,-2.350364,-0.67279255,22.0,2,-0.06041721
15.538912,-14.379118,1.8522338,21.0,10,-0.060414903
2.8427188,-2.6314652,-0.61353606,21.0,3,-0.0604126
3.2242174,-2.9867032,-0.53963745,26.0,4,-0.060407992
3.719271,-3.446495,-0.4436227,33.0,5,-0.060403384
4.263162,-3.9532638,-0.3047,33.0,6,-0.060398776
32.72564,-30.35736,10.305457,25.0,14,-0.06039647
5.4630837,-5.069508,-0.13009024,18.0,7,-0.060394168
32.679295,-30.335602,11.947605,15.0,15,-0.060391862
2.0831842,-1.938526,-0.7624809,24.0,0,-0.060371127
6.896833,-6.420158,0.16447149,61.0,8,-0.060368825
2.2747025,-2.1182272,-0.71759385,23.0,1,-0.06036652
9.126542,-8.501708,0.65367615,41.0,9,-0.060364217
2.5354831,-2.3618953,-0.6735558,22.0,2,-0.06036191
15.498827,-14.442779,1.853454,21.0,10,-0.06035961
2.8407407,-2.6481068,-0.6151004,22.0,3,-0.060357302
43.474293,-40.540432,7.2987556,15.0,11,-0.060355
3.2108693,-2.9952319,-0.53915,23.0,4,-0.060352694
43.49295,-40.586224,9.422049,19.0,12,-0.060350392
3.726154,-3.4771276,-0.44588876,28.0,5,-0.060348086
45.528133,-42.500256,12.106449,43.0,13,-0.060345784
4.342761,-4.0553617,-0.31139898,19.0,6,-0.060343478
32.68071,-30.528616,10.324803,41.0,14,-0.060341176
5.458504,-5.1008344,-0.13040438,15.0,7,-0.06033887
32.42079,-30.307014,11.891701,30.0,15,-0.060336567
2.0764046,-1.9457859,-0.7624809,24.0,0,-0.060315832
6.912313,-6.479751,0.16537902,57.0,8,-0.060313527
2.2772455,-2.1354861,-0.7207432,24.0,1,-0.060311224
9.18421,-8.615501,0.65995646,42.0,9,-0.06030892
2.5243595,-2.368045,-0.67279255,21.0,2,-0.060306616
15.429432,-14.479069,1.851188,7.0,10,-0.06030431
2.8444421,-2.6701744,-0.6179162,20.0,3,-0.060302008
43.578518,-40.92295,7.3401914,16.0,11,-0.060299702
3.2090752,-3.0145767,-0.54061246,24.0,4,-0.0602974
43.345257,-40.732384,9.420797,19.0,12,-0.060295094
3.715446,-3.491477,-0.44606307,27.0,5,-0.06029279
4.431883,-4.167641,-0.3188307,11.0,6,-0.060288183
44.420303,-41.78645,14.079687,23.0,14,-0.06028588
5.449404,-5.12808,-0.1306138,15.0,7,-0.060283575
32.43296,-30.531227,11.935182,15.0,15,-0.060281273
2.0597649,-1.943741,-0.7588575,24.0,0,-0.060260534
6.968175,-6.5779657,0.16726387,63.0,8,-0.060258232
2.2740276,-2.147436,-0.72209287,22.0,1,-0.060255926
9.188925,-8.680425,0.6624686,41.0,9,-0.060253624
2.518932,-2.3795385,-0.6735558,22.0,2,-0.060251318
16.020304,-15.139057,1.9284079,18.0,10,-0.060249016
2.8322327,-2.6773732,-0.61729044,21.0,3,-0.06024671
43.62579,-41.254856,7.3723645,17.0,11,-0.060244408
3.2071855,-3.033945,-0.5420749,22.0,4,-0.0602421
43.46681,-41.133263,9.478366,20.0,12,-0.0602398
3.714813,-3.5153809,-0.44745758,25.0,5,-0.060237497
43.92719,-41.583466,11.757651,40.0,13,-0.06023519
4.4361606,-4.2009387,-0.3201914,7.0,6,-0.06023289
44.14543,-41.819294,14.038746,11.0,14,-0.060230583
5.457597,-5.171829,-0.1312421,15.0,7,-0.06022828
32.690712,-30.989809,12.069768,15.0,15,-0.060225975
2.0599694,-1.957573,-0.76144564,24.0,0,-0.06020524
6.9640117,-6.62016,0.16771764,59.0,8,-0.060202934
2.2608695,-2.149989,-0.7202933,20.0,1,-0.06020063
9.24684,-8.796419,0.6688536,43.0,9,-0.060198326
2.514878,-2.3923764,-0.6747007,21.0,2,-0.060196023
16.139114,-15.358331,1.9491509,27.0,10,-0.06019372
2.8214393,-2.6858816,-0.61697763,22.0,3,-0.060191415
43.62527,-41.54378,7.3967385,17.0,11,-0.060189113
3.2080736,-3.056075,-0.5440248,22.0,4,-0.060186807
3.7140584,-3.5393229,-0.44885206,21.0,5,-0.0601822
4.4258056,-4.220533,-0.3205054,7.0,6,-0.06017759
44.07956,-42.049805,14.06439,23.0,14,-0.06017529
5.4655504,-5.2156982,-0.13187039,15.0,7,-0.060172983
2.0614982,-1.9727656,-0.7645515,24.0,0,-0.06014994
6.987085,-6.6886787,0.16883458,53.0,8,-0.06014764
2.2561657,-2.1605632,-0.7211931,22.0,1,-0.060145337
9.280981,-8.890817,0.67356384,40.0,9,-0.06014303
2.515018,-2.4092891,-0.67699033,20.0,2,-0.06014073
16.160208,-15.486257,1.9582151,23.0,10,-0.060138423
2.8191762,-2.7025485,-0.61854196,21.0,3,-0.06013612
3.2031167,-3.0727515,-0.5449997,23.0,4,-0.060131513
43.130127,-41.389217,9.467728,19.0,12,-0.060129207
3.7189317,-3.56882,-0.4509438,21.0,5,-0.060126904
4.4268928,-4.251174,-0.32165682,7.0,6,-0.060122296
43.82008,-42.095413,14.028398,22.0,14,-0.06011999
5.4617295,-5.2486005,-0.13221943,15.0,7,-0.060117688
2.0573814,-1.9826306,-0.7655868,24.0,0,-0.060094647
7.019842,-6.7671537,0.17019588,53.0,8,-0.060092345
2.2528183,-2.172484,-0.72254276,23.0,1,-0.06009004
9.293013,-8.964759,0.676704,40.0,9,-0.060087737
2.5080059,-2.4194164,-0.677372,20.0,2,-0.06008543
16.163399,-15.597913,1.9651875,23.0,10,-0.06008313
2.811147,-2.7137444,-0.6188548,19.0,3,-0.060080823
3.1923711,-3.083914,-0.5449997,24.0,4,-0.060076214
3.7179136,-3.592856,-0.45233828,19.0,5,-0.060071606
4.422076,-4.2763195,-0.3223895,5.0,6,-0.060066998
43.671474,-42.246765,14.027948,11.0,14,-0.060064696
5.44625,-5.270415,-0.13228925,15.0,7,-0.06006239
2.0518343,-1.9911453,-0.7661044,24.0,0,-0.060039353
7.0463967,-6.8403664,0.17141753,40.0,8,-0.060037047
2.2536094,-2.1884804,-0.7252422,21.0,1,-0.060034744
9.320546,-9.051184,0.68089086,40.0,9,-0.06003244
2.498137,-2.426788,-0.67699033,21.0,2,-0.060030136
16.131716,-15.6764555,1.9679767,23.0,10,-0.06002783
2.8101554,-2.7318025,-0.620732,18.0,3,-0.060025528
3.1887016,-3.1019597,-0.54621845,24.0,4,-0.06002092
3.7024934,-3.6030328,-0.45198968,21.0,5,-0.06001631
4.4128456,-4.2973027,-0.3228082,5.0,6,-0.060011704
43.95507,-42.81913,14.166967,23.0,14,-0.060009398
5.4402013,-5.299609,-0.13256848,15.0,7,-0.060007095
2.0393448,-1.9928948,-0.76403385,24.0,0,-0.059984054
7.0537076,-6.893046,0.17215054,36.0,8,-0.059981752
2.249127,-2.1986659,-0.726142,23.0,1,-0.059979446
9.384568,-9.177223,0.6879039,43.0,9,-0.059977144
2.4966676,-2.442358,-0.67889845,20.0,2,-0.059974838
16.001427,-15.658814,1.9587381,19.0,10,-0.059972536
2.8039048,-2.7438695,-0.62135774,18.0,3,-0.05997023
44.129257,-43.19948,7.5824676,21.0,11,-0.059967928
3.1869073,-3.1208498,-0.5476809,26.0,4,-0.05996562
3.6941636,-3.6201189,-0.45251262,18.0,5,-0.059961013
4.412833,-4.325895,-0.32385492,5.0,6,-0.05995641
43.84762,-42.998764,14.178215,11.0,14,-0.059954103
5.4330893,-5.32977,-0.13284773,13.0,7,-0.0599518
45.842262,-44.9862,17.209915,46.0,15,-0.059949495
2.032725,-1.9996465,-0.76403385,23.0,0,-0.05992876
7.0452824,-6.933054,0.1725345,28.0,8,-0.059926454
2.2344947,-2.199668,-0.7238925,20.0,1,-0.05992415
9.427901,-9.284198,0.6934515,42.0,9,-0.059921846
2.4927516,-2.4547563,-0.6800433,20.0,2,-0.059919544
16.338318,-16.094904,2.0064995,15.0,10,-0.059917238
2.7914956,-2.7508671,-0.620732,18.0,3,-0.059914935
3.1830611,-3.1389246,-0.5488996,26.0,4,-0.059910327
3.6942673,-3.6455867,-0.4540814,19.0,5,-0.05990572
4.399128,-4.3426747,-0.3239596,5.0,6,-0.05990111
45.00898,-44.446903,14.603823,12.0,14,-0.05989881
5.440058,-5.3739977,-0.133476,16.0,7,-0.059896503
2.0336156,-2.015242,-0.76713973,22.0,0,-0.05987346
7.056548,-6.9927936,0.17340712,30.0,8,-0.05987116
2.2254188,-2.2060823,-0.72344255,21.0,1,-0.059868857
9.480525,-9.401432,0.6997318,37.0,9,-0.05986655
2.4865246,-2.4666417,-0.6808065,21.0,2,-0.05986425
15.69514,-15.575069,1.9345088,11.0,10,-0.059861943
2.787002,-2.7666466,-0.62198347,19.0,3,-0.05985964
3.1763108,-3.1542127,-0.54963076,24.0,4,-0.059855033
3.6871727,-3.6640778,-0.45477867,21.0,5,-0.059850425
45.560257,-45.290695,12.487304,45.0,13,-0.05984812
4.3888464,-4.364403,-0.32437828,5.0,6,-0.059845816
44.657875,-44.42466,14.542636,12.0,14,-0.05984351
5.4368615,-5.4084682,-0.13385996,13.0,7,-0.05984121
32.12106,-31.964466,12.142237,16.0,15,-0.059838902
2.0347733,-2.0305161,-0.7702455,22.0,0,-0.059818167
7.066251,-7.053929,0.17427972,30.0,8,-0.059815865
2.2283494,-2.2252402,-0.7270418,21.0,1,-0.05981356
9.530786,-9.520808,0.7060121,38.0,9,-0.059811257
2.476511,-2.4739187,-0.6804249,22.0,2,-0.05980895
16.596199,-16.584616,2.0526922,16.0,10,-0.05980665
2.78571,-2.7847376,-0.6238607,19.0,3,-0.059804343
45.631985,-45.631985,7.923702,27.0,11,-0.05980204
3.1535013,-3.154602,-0.5476809,22.0,4,-0.059799735
3.6793504,-3.6832054,-0.4554759,21.0,5,-0.059795126
4.3876987,-4.3938284,-0.32542503,5.0,6,-0.059790518
44.443333,-44.520966,14.523291,37.0,14,-0.059788216
5.4212394,-5.432605,-0.13396467,16.0,7,-0.05978591
32.00369,-32.08198,12.142237,16.0,15,-0.059783608
2.02323,-2.0338514,-0.76869255,20.0,0,-0.059762873
7.076843,-7.113994,0.17515235,34.0,8,-0.059760567
2.2219427,-2.234387,-0.72749174,20.0,1,-0.059758265
9.593242,-9.650339,0.7131298,42.0,9,-0.05975596
2.4674268,-2.482979,-0.6804249,22.0,2,-0.059753656
15.628218,-15.732213,1.9400867,3.0,10,-0.05975135
2.783836,-2.803339,-0.6257379,22.0,3,-0.05974905
3.1536584,-3.1768608,-0.54963076,20.0,4,-0.05974444
3.6720836,-3.7016842,-0.45617315,21.0,5,-0.05973983
4.382813,-4.421228,-0.32626238,7.0,6,-0.059735224
44.294945,-44.698784,14.528238,12.0,14,-0.059732918
5.4275794,-5.477063,-0.13459297,16.0,7,-0.059730615
32.20149,-32.50642,12.260259,16.0,15,-0.05972831
2.0168307,-2.0401974,-0.76869255,19.0,0,-0.059503555
7.0742974,-7.158759,0.17567593,30.0,8,-0.059501253
2.2199988,-2.2472882,-0.7292913,20.0,1,-0.059498947
9.634163,-9.755997,0.71857274,40.0,9,-0.059496645
2.4651318,-2.496306,-0.6819514,21.0,2,-0.05949434
15.640304,-15.84362,1.9477565,3.0,10,-0.059492037
2.7777905,-2.814883,-0.6263637,21.0,3,-0.05948973
46.321278,-46.9562,8.098706,31.0,11,-0.05948743
3.152863,-3.1971953,-0.55133694,24.0,4,-0.059485123
43.512722,-44.139965,9.81689,24.0,12,-0.05948282
3.6632338,-3.71604,-0.45652178,24.0,5,-0.059480514
4.3675003,-4.4335523,-0.32615772,11.0,6,-0.059475906
33.49448,-34.01291,11.020802,5.0,14,-0.059473604
5.423415,-5.5092826,-0.13494201,13.0,7,-0.059471298
32.31845,-32.8416,12.346187,16.0,15,-0.059468996
2.00699,-2.044468,-0.7676573,20.0,0,-0.05944826
7.0702753,-7.204818,0.1761995,28.0,8,-0.059445955
2.210776,-2.2536328,-0.7288414,20.0,1,-0.059443653
9.675564,-9.86657,0.72422504,40.0,9,-0.059441347
2.4632761,-2.511904,-0.68385947,21.0,2,-0.059439044
2.7596524,-2.8160968,-0.62448645,20.0,3,-0.059434436
3.147239,-3.2138546,-0.5523119,23.0,4,-0.059429828
44.472157,-45.42933,10.069062,28.0,12,-0.059427522
3.658603,-3.7373471,-0.45756766,21.0,5,-0.05942522
44.96992,-45.953846,12.49799,45.0,13,-0.059422914
4.336635,-4.4330664,-0.32500634,26.0,6,-0.05942061
33.521336,-34.2787,11.068941,11.0,14,-0.059418306
5.420926,-5.545339,-0.13536087,13.0,7,-0.059416004
32.481754,-33.238834,12.45282,17.0,15,-0.059413698
2.011978,-2.0639112,-0.7723161,18.0,0,-0.059392963
7.068807,-7.2538,0.17679287,26.0,8,-0.05939066
2.1933773,-2.2515647,-0.7256921,18.0,1,-0.059388354
9.710734,-9.971828,0.72945863,40.0,9,-0.059386052
2.4586022,-2.5247068,-0.68500435,21.0,2,-0.059383746
15.885096,-16.317898,1.9923801,3.0,10,-0.059381444
2.760827,-2.8370383,-0.6269894,22.0,3,-0.059379138
3.1332338,-3.221975,-0.55182445,24.0,4,-0.05937453
43.514698,-44.76277,9.887598,25.0,12,-0.059372228
3.6538675,-3.7586663,-0.45861349,27.0,5,-0.05936992
4.315567,-4.4424467,-0.3245876,39.0,6,-0.059365314
46.615173,-48.00244,15.447839,30.0,14,-0.05936301
5.409893,-5.572837,-0.1355703,13.0,7,-0.05936071
2.0074484,-2.0736978,-0.7733514,17.0,0,-0.059337668
7.0712557,-7.307171,0.17749096,30.0,8,-0.059335362
2.1976988,-2.2718132,-0.7297412,19.0,1,-0.05933306
9.811933,-10.146368,0.7397165,33.0,9,-0.059330754
2.4538689,-2.5375078,-0.6861492,20.0,2,-0.05932845
16.553665,-17.123867,2.0837195,4.0,10,-0.059326146
2.7563975,-2.8523402,-0.6282409,23.0,3,-0.059323844
45.887707,-47.501507,8.10943,31.0,11,-0.059321538
3.1247256,-3.2357478,-0.5523119,24.0,4,-0.059319235
3.642109,-3.7728317,-0.45878783,27.0,5,-0.059314627
4.27646,-4.433047,-0.3228082,41.0,6,-0.05931002
46.308002,-48.02038,15.401499,30.0,14,-0.059307717
5.409837,-5.6118426,-0.13605896,16.0,7,-0.05930541
2.0001976,-2.0806923,-0.7733514,18.0,0,-0.05928237
7.063719,-7.3505535,0.17794473,28.0,8,-0.059280068
2.1938057,-2.2836864,-0.73109096,20.0,1,-0.05927776
9.853926,-10.261228,0.7455781,31.0,9,-0.05927546
2.438197,-2.5389774,-0.6842411,21.0,2,-0.059273154
17.39892,-18.12442,2.198068,17.0,10,-0.05927085
2.7518952,-2.8676455,-0.62949234,25.0,3,-0.05926855
46.114643,-48.071102,8.17914,32.0,11,-0.059266243
3.1175337,-3.2509341,-0.5530431,24.0,4,-0.05926394
44.811455,-46.74528,10.256158,31.0,12,-0.059261635
3.6137505,-3.769701,-0.45687038,34.0,5,-0.059259333
45.35016,-47.323757,12.740699,47.0,13,-0.059257027
4.26925,-4.456601,-0.32343623,46.0,6,-0.059254725
47.54318,-49.6469,15.869847,16.0,14,-0.05925242
5.3874493,-5.627803,-0.13598914,16.0,7,-0.059250116
33.886955,-35.411144,13.132996,20.0,15,-0.05924781
1.986253,-2.080675,-0.77076316,20.0,0,-0.059227075
7.0601068,-7.398313,0.17850322,37.0,8,-0.05922477
2.191201,-2.2969706,-0.73289055,18.0,1,-0.059222467
9.943477,-10.4270935,0.75510323,30.0,9,-0.059220165
2.432029,-2.5503147,-0.68500435,21.0,2,-0.05921786
16.72516,-17.544744,2.1206734,4.0,10,-0.059215557
2.7432313,-2.8786635,-0.6298052,23.0,3,-0.05921325
3.1130116,-3.268984,-0.55426186,27.0,4,-0.059208643
44.716114,-46.972958,10.271801,31.0,12,-0.05920634
3.57859,-3.759203,-0.4540814,39.0,5,-0.059204035
44.51611,-46.7792,12.55218,46.0,13,-0.059201732
4.2467847,-4.464241,-0.32291287,43.0,6,-0.059199426
5.360883,-5.639328,-0.13581464,22.0,7,-0.05919482
45.926445,-48.32876,17.864208,49.0,15,-0.059192516
1.9869524,-2.0960076,-0.773869,20.0,0,-0.05917178
7.0479937,-7.4374266,0.17885226,39.0,8,-0.059169475
2.18451,-2.3060203,-0.73334044,19.0,1,-0.059167173
10.086034,-10.647055,0.76860595,31.0,9,-0.059164867
2.4312117,-2.5673413,-0.68729407,22.0,2,-0.059162565
17.441809,-18.42486,2.2196825,21.0,10,-0.05916026
2.733166,-2.8882217,-0.6298052,21.0,3,-0.059157956
46.585514,-49.24558,8.323433,35.0,11,-0.05915565
3.1043098,-3.2827153,-0.55474925,31.0,4,-0.05915335
3.5503902,-3.7557452,-0.452164,36.0,5,-0.05914874
45.47174,-48.118652,12.868922,48.0,13,-0.059146434
4.2339187,-4.4819417,-0.32312223,43.0,6,-0.05914413
56.705692,-60.0485,19.067753,31.0,14,-0.059141826
5.3078294,-5.6207266,-0.13494201,30.0,7,-0.059139524
45.415833,-48.10992,17.727552,48.0,15,-0.059137218
1.9822721,-2.1057441,-0.77490425,20.0,0,-0.059116483
7.0452213,-7.484055,0.17941074,37.0,8,-0.05911418
2.171509,-2.3075747,-0.7315408,17.0,1,-0.059111875
10.171971,-10.813125,0.7780264,31.0,9,-0.059109572
2.4303048,-2.5843935,-0.6895837,21.0,2,-0.059107266
17.552061,-18.671446,2.2419941,30.0,10,-0.059104964
2.7249267,-2.898709,-0.63011813,23.0,3,-0.05910266
46.81346,-49.816414,8.393629,37.0,11,-0.059100356
3.0866113,-3.2857573,-0.55353063,34.0,4,-0.05909805
3.501804,-3.7303472,-0.44763187,36.0,5,-0.05909344
4.202632,-4.4784803,-0.32186615,41.0,6,-0.059088834
5.311431,-5.664018,-0.13553539,33.0,7,-0.05908423
1.9792367,-2.1165388,-0.7764572,18.0,0,-0.05906119
7.00813,-7.4969153,0.17913151,43.0,8,-0.059058882
2.1700935,-2.32226,-0.73379034,18.0,1,-0.05905658
10.173702,-10.89089,0.7810619,42.0,9,-0.059054274
2.4217212,-2.5924385,-0.6895837,21.0,2,-0.059051972
17.596113,-18.84313,2.2555907,30.0,10,-0.059049666
2.7188356,-2.912535,-0.6310567,25.0,3,-0.059047364
46.801807,-50.15368,8.422879,37.0,11,-0.059045058
3.0683525,-3.2892535,-0.5523119,35.0,4,-0.059042756
45.93291,-49.257015,10.667268,37.0,12,-0.05904045
3.5002856,-3.7535965,-0.4490264,36.0,5,-0.059038147
4.2060366,-4.51358,-0.32333156,39.0,6,-0.05903354
5.3025293,-5.6942315,-0.13581464,33.0,7,-0.05902893
1.9718364,-2.1234348,-0.7764572,18.0,0,-0.05900589
6.9193373,-7.453916,0.1775259,60.0,8,-0.059003588
2.1632998,-2.3312492,-0.73424023,19.0,1,-0.05900128
10.170941,-10.964408,0.7837834,43.0,9,-0.05899898
2.4073164,-2.5951188,-0.6880573,22.0,2,-0.058996674
17.619644,-19.000858,2.267095,26.0,10,-0.05899437
2.7153668,-2.9292512,-0.63262105,28.0,3,-0.058992065
3.0487578,-3.2912066,-0.55084944,41.0,4,-0.05898746
3.4898686,-3.7687156,-0.449375,37.0,5,-0.058982853
46.04078,-49.736923,13.174217,50.0,13,-0.058980547
4.2092466,-4.5487566,-0.32479697,41.0,6,-0.058978245
5.302985,-5.7347283,-0.1363382,28.0,7,-0.058973636
1.9644122,-2.1303048,-0.7764572,18.0,0,-0.058950596
6.821443,-7.400097,0.17567593,60.0,8,-0.05894829
2.15779,-2.3416526,-0.73514,19.0,1,-0.058945987
10.239507,-11.115894,0.79205245,35.0,9,-0.05894368
2.4088843,-2.615058,-0.69111025,21.0,2,-0.05894138
17.667929,-19.186827,2.2819116,13.0,10,-0.058939077
2.6944225,-2.927085,-0.63011813,30.0,3,-0.05893677
49.46954,-53.760044,8.970316,48.0,11,-0.05893447
3.0264995,-3.2901409,-0.5488996,42.0,4,-0.058932163
3.4766924,-3.7808743,-0.449375,36.0,5,-0.058927555
4.210911,-4.5825405,-0.32615772,41.0,6,-0.058922946
5.2896976,-5.760569,-0.13651273,37.0,7,-0.05891834
1.9556595,-2.135724,-0.7759395,21.0,0,-0.0588953
6.7996206,-7.4282885,0.17578064,56.0,8,-0.058892995
2.1509185,-2.350608,-0.73559,18.0,1,-0.058890693
10.278831,-11.237045,0.7981234,35.0,9,-0.058888387
2.3997414,-2.6234505,-0.69111025,18.0,2,-0.058886085
17.829414,-19.498343,2.3115447,9.0,10,-0.05888378
2.6748593,-2.9262662,-0.6279281,30.0,3,-0.058881477
3.0109801,-3.2962883,-0.54816836,45.0,4,-0.05887687
46.128536,-50.51719,10.834965,39.0,12,-0.058874562
3.4755647,-3.8062286,-0.4509438,39.0,5,-0.05887226
4.167964,-4.567704,-0.32406428,39.0,6,-0.058867652
5.2938094,-5.8055954,-0.137141,34.0,7,-0.058863044
1.9533914,-2.1482549,-0.7780101,21.0,0,-0.058840003
6.772304,-7.4504986,0.17574574,58.0,8,-0.0588377
2.1413898,-2.3566594,-0.73514,20.0,1,-0.058835395
10.364431,-11.410348,0.80785793,31.0,9,-0.058833092
2.3932092,-2.6347177,-0.69187343,16.0,2,-0.058830786
17.904554,-19.71829,2.330196,9.0,10,-0.058828484
2.6593175,-2.9297345,-0.6266765,32.0,3,-0.05882618
2.9887862,-3.2950158,-0.54621845,52.0,4,-0.05882157
3.4542272,-3.809482,-0.44989792,39.0,5,-0.058816962
4.1506534,-4.580745,-0.3239596,37.0,6,-0.058812354
5.290961,-5.84331,-0.13759477,28.0,7,-0.058807746
49.708447,-54.917015,19.8478,59.0,15,-0.058805443
1.9575324,-2.167965,-0.7826688,18.0,0,-0.05878471
6.760994,-7.4904203,0.17612968,56.0,8,-0.058782402
2.1331503,-2.36412,-0.73514,19.0,1,-0.0587801
10.418179,-11.550274,0.81518495,32.0,9,-0.058777794
2.377423,-2.6357665,-0.68996537,23.0,2,-0.058775492
19.26321,-21.36395,2.516709,14.0,10,-0.058773186
2.6437845,-2.93313,-0.62542504,32.0,3,-0.058770884
2.974609,-3.3024783,-0.54573095,49.0,4,-0.058766276
3.422244,-3.8007874,-0.44745758,40.0,5,-0.058761667
4.10792,-4.565511,-0.32186615,37.0,6,-0.05875706
48.333206,-53.736015,16.685968,18.0,14,-0.058754757
5.2798915,-5.8721514,-0.13783911,28.0,7,-0.05875245
1.9447945,-2.1690314,-0.7805982,16.0,0,-0.05872941
6.6707425,-7.442499,0.17445426,76.0,8,-0.058727108
2.131387,-2.3788087,-0.73738956,18.0,1,-0.058724802
10.507053,-11.730881,0.8253381,28.0,9,-0.0587225
2.3642786,-2.6396618,-0.6888205,24.0,2,-0.058720194
19.459642,-21.73387,2.5522687,14.0,10,-0.05871789
2.6414347,-2.9511724,-0.6273023,33.0,3,-0.058715586
2.9643862,-3.3143213,-0.5459747,46.0,4,-0.058710977
3.438172,-3.8453863,-0.45129246,37.0,5,-0.058706373
4.147849,-4.6423764,-0.32626238,37.0,6,-0.058701765
48.158318,-53.91894,16.69047,18.0,14,-0.05869946
5.284666,-5.918887,-0.1385023,28.0,7,-0.058697157
1.9346418,-2.172921,-0.779563,17.0,0,-0.058674116
6.6367455,-7.4567766,0.17424482,74.0,8,-0.05867181
2.128252,-2.392058,-0.7391892,18.0,1,-0.058669508
10.558954,-11.871952,0.83266515,28.0,9,-0.0586672
2.3602688,-2.6537664,-0.690347,27.0,2,-0.0586649
19.739769,-22.202198,2.5991585,10.0,10,-0.058662597
2.6271799,-2.955945,-0.6263637,43.0,3,-0.05866029
2.950163,-3.3216803,-0.5454872,42.0,4,-0.058655683
3.4313424,-3.8648136,-0.452164,36.0,5,-0.058651075
4.147525,-4.674755,-0.32751846,37.0,6,-0.058646467
46.405212,-52.3226,16.146086,17.0,14,-0.058644164
5.279892,-5.955254,-0.13892116,28.0,7,-0.05864186
46.93441,-52.956512,18.960566,54.0,15,-0.058639556
1.9296044,-2.1825557,-0.7805982,17.0,0,-0.058618817
6.617297,-7.4873896,0.17441934,54.0,8,-0.058616515
2.1173089,-2.3965511,-0.73828936,18.0,1,-0.058614213
10.612642,-12.016523,0.84020156,26.0,9,-0.058611907
2.3444932,-2.6546316,-0.6884389,28.0,2,-0.058609605
19.871815,-22.50845,2.626874,15.0,10,-0.0586073
2.6103103,-2.9576926,-0.6247993,38.0,3,-0.058604997
2.943802,-3.3379135,-0.5464622,55.0,4,-0.05860039
3.4046547,-3.8618226,-0.45042086,37.0,5,-0.05859578
4.1259007,-4.68321,-0.32709977,35.0,6,-0.058591172
46.199112,-52.457947,16.137989,16.0,14,-0.058588866
5.2934275,-6.012672,-0.13982868,30.0,7,-0.058586564
1.9219741,-2.189278,-0.7805982,22.0,0,-0.058563523
6.620139,-7.543508,0.17518725,66.0,8,-0.05856122
2.1025045,-2.3966029,-0.7360398,20.0,1,-0.058558915
10.678616,-12.176628,0.8487846,25.0,9,-0.058556613
2.3378012,-2.6657515,-0.68920213,39.0,2,-0.058554307
19.954672,-22.761955,2.6483145,10.0,10,-0.058552004
2.602574,-2.969757,-0.62542504,34.0,3,-0.0585497
2.9399798,-3.357129,-0.54792464,48.0,4,-0.05854509
3.3898413,-3.8721848,-0.45024657,39.0,5,-0.058540482
4.125308,-4.715622,-0.32835582,39.0,6,-0.058535874
47.873272,-54.743008,16.789446,18.0,14,-0.05853357
5.288201,-6.049179,-0.14024754,33.0,7,-0.058531266
1.9143205,-2.1959734,-0.7805982,24.0,0,-0.05850823
6.5740604,-7.5439577,0.17466368,70.0,8,-0.058505923
2.0966861,-2.4068663,-0.73693967,21.0,1,-0.05850362
10.722613,-12.313239,0.8556929,18.0,9,-0.058501314
2.3259032,-2.6709347,-0.6884389,36.0,2,-0.058499012
20.079172,-23.065903,2.675507,16.0,10,-0.058496706
2.5973787,-2.9847841,-0.6266765,41.0,3,-0.058494404
2.932151,-3.3718648,-0.54865587,45.0,4,-0.058489796
3.3919897,-3.9020376,-0.45233828,46.0,5,-0.058485188
4.12192,-4.7450714,-0.32940254,38.0,6,-0.05848058
49.534584,-57.043316,17.441805,20.0,14,-0.058478273
5.257877,-6.05703,-0.1400032,36.0,7,-0.05847597
48.67406,-56.09189,19.89956,59.0,15,-0.05847367
1.9066434,-2.2026424,-0.7805982,23.0,0,-0.05845293
6.586942,-7.6122236,0.17571084,70.0,8,-0.058450628
2.0895464,-2.4156442,-0.73738956,22.0,1,-0.058448322
10.767096,-12.451814,0.862706,16.0,9,-0.05844602
2.3127134,-2.6745818,-0.68729407,41.0,2,-0.058443714
20.342505,-23.533783,2.7215252,11.0,10,-0.05844141
2.5908184,-2.9983168,-0.62761515,45.0,3,-0.058439106
2.9359314,-3.400109,-0.55158067,52.0,4,-0.058434498
3.382254,-3.918379,-0.45286122,58.0,5,-0.05842989
4.0948963,-4.7473316,-0.32856518,43.0,6,-0.058425285
50.325233,-58.364094,17.791828,21.0,14,-0.05842298
5.24323,-6.08292,-0.14017773,33.0,7,-0.058420677
48.919334,-56.77369,20.080736,60.0,15,-0.05841837
1.9002023,-2.2107496,-0.7811159,21.0,0,-0.058397636
6.5342665,-7.6048365,0.17501274,80.0,8,-0.05839533
2.08999,-2.4332714,-0.74053884,24.0,1,-0.058393028
10.819843,-12.601456,0.8704517,20.0,9,-0.05839072
2.3046422,-2.684128,-0.68767565,32.0,2,-0.05838842
20.562586,-23.956913,2.7621398,5.0,10,-0.058386113
2.576478,-3.0028446,-0.6266765,42.0,3,-0.05838381
2.9266293,-3.413351,-0.5520682,56.0,4,-0.058379203
49.784504,-58.084576,12.116476,57.0,12,-0.0583769
3.3672595,-3.928649,-0.4526869,66.0,5,-0.058374595
4.0653076,-4.7464275,-0.32751846,39.0,6,-0.058369987
50.648438,-59.155205,17.978989,21.0,14,-0.058367684
5.2453704,-6.1285324,-0.14080602,33.0,7,-0.05836538
1.8924738,-2.217369,-0.7811159,24.0,0,-0.058342338
6.5258512,-7.648896,0.1755014,80.0,8,-0.058340035
2.0789545,-2.4375863,-0.73963904,27.0,1,-0.058337733
10.850947,-12.727301,0.8765227,16.0,9,-0.058335427
2.3054485,-2.7041082,-0.6907286,33.0,2,-0.058333125
21.729847,-25.496397,2.9308734,13.0,10,-0.05833082
2.5570128,-3.0012944,-0.62448645,41.0,3,-0.058328517
2.919844,-3.4295921,-0.5530431,56.0,4,-0.05832391
3.359982,-3.9479651,-0.4535585,58.0,5,-0.0583193
4.0318933,-4.74081,-0.32615772,41.0,6,-0.058314692
50.307846,-59.17426,17.9313,21.0,14,-0.058312386
5.2433705,-6.16966,-0.14132959,27.0,7,-0.058310084
1.8909672,-2.2313304,-0.7837041,25.0,0,-0.058287043
6.5016975,-7.6746807,0.1755712,78.0,8,-0.05828474
2.0590985,-2.4314446,-0.73559,26.0,1,-0.058282435
10.854201,-12.821502,0.88039553,18.0,9,-0.058280133
2.2985322,-2.715136,-0.69149184,33.0,2,-0.058277827
21.988224,-25.98273,2.9779375,13.0,10,-0.058275525
2.5541754,-3.0192504,-0.6263637,46.0,3,-0.05827322
2.9104178,-3.442795,-0.55353063,49.0,4,-0.05826861
50.650257,-59.936485,12.4287195,62.0,12,-0.05826631
3.3551822,-3.9703221,-0.45477867,48.0,5,-0.058264002
3.988259,-4.7228103,-0.3239596,39.0,6,-0.058259394
5.22825,-6.195567,-0.14150412,33.0,7,-0.058254786
1.89063,-2.2467866,-0.7868099,25.0,0,-0.05823175
6.4864526,-7.7111015,0.17588535,60.0,8,-0.058229443
2.053107,-2.4416,-0.7364898,26.0,1,-0.05822714
10.862072,-12.921995,0.8846871,21.0,9,-0.058224835
2.2903042,-2.7246459,-0.69187343,27.0,2,-0.058222532
22.347288,-26.59473,3.0391207,14.0,10,-0.058220226
2.5575967,-3.0447857,-0.6298052,37.0,3,-0.058217924
2.890725,-3.4438107,-0.5520682,59.0,4,-0.058213316
3.3489866,-3.9911668,-0.4558245,46.0,5,-0.058208708
3.9858656,-4.7535386,-0.325111,35.0,6,-0.0582041
5.187327,-6.1907873,-0.14098054,39.0,7,-0.05819949
1.8716276,-2.2400298,-0.78215116,24.0,0,-0.05816984
6.4325767,-7.7014656,0.17515235,56.0,8,-0.05816754
2.0420737,-2.4457603,-0.73559,26.0,1,-0.058165234
10.879324,-13.03,0.8896067,23.0,9,-0.05816293
2.2719734,-2.7220733,-0.68920213,25.0,2,-0.058160625
22.741909,-27.25697,3.105708,15.0,10,-0.058158323
2.5545447,-3.0627968,-0.63168246,38.0,3,-0.058156017
2.8894582,-3.4655747,-0.5540181,52.0,4,-0.05815141
3.347788,-4.0181403,-0.45756766,46.0,5,-0.0581468
46.132523,-55.389626,14.0118685,55.0,13,-0.0581445
3.9654145,-4.7628174,-0.32479697,37.0,6,-0.058142193
5.1411843,-6.177215,-0.14028244,36.0,7,-0.058137584
1.8629555,-2.2447376,-0.78163356,25.0,0,-0.058114547
6.4121103,-7.728911,0.17529197,64.0,8,-0.05811224
2.0426602,-2.463019,-0.73873925,34.0,1,-0.05810994
10.658834,-12.852313,0.8750573,26.0,9,-0.058107633
2.27797,-2.747729,-0.69378155,28.0,2,-0.05810533
22.942532,-27.683533,3.145625,15.0,10,-0.058103025
2.550675,-3.0788574,-0.63324684,32.0,3,-0.058100723
2.8792164,-3.476667,-0.55426186,48.0,4,-0.058096115
3.3369856,-4.03229,-0.45791626,48.0,5,-0.058091506
3.9979663,-4.8344283,-0.3287745,37.0,6,-0.0580869
5.1206717,-6.1942296,-0.14028244,42.0,7,-0.05808229
1.859188,-2.2553751,-0.7831865,24.0,0,-0.05805925
6.408064,-7.7763667,0.17588535,54.0,8,-0.058056947
2.029525,-2.4637625,-0.73693967,29.0,1,-0.05805464
10.578357,-12.846271,0.8721265,27.0,9,-0.05805234
2.2671173,-2.754148,-0.6933999,29.0,2,-0.058050033
23.177294,-28.15633,3.1905973,7.0,10,-0.05804773
2.531665,-3.0766213,-0.6310567,32.0,3,-0.058045425
22.599625,-27.474102,4.3680415,74.0,11,-0.058043122
2.8695848,-3.4897623,-0.55474925,46.0,4,-0.058040816
3.338069,-4.0623856,-0.46000803,45.0,5,-0.05803621
3.9582522,-4.8205705,-0.3268904,39.0,6,-0.0580316
5.1282,-6.247618,-0.14108525,30.0,7,-0.058026996
1.8521323,-2.2636695,-0.7837041,24.0,0,-0.058003955
6.3909135,-7.8137326,0.1761995,64.0,8,-0.05800165
2.015547,-2.4651499,-0.73514,33.0,1,-0.057999346
10.4351425,-12.7674265,0.8641714,32.0,9,-0.05799704
2.2644606,-2.7715614,-0.6956896,30.0,2,-0.05799474
22.678114,-27.756626,3.1358638,7.0,10,-0.057992432
2.5203717,-3.0858798,-0.6310567,33.0,3,-0.05799013
22.489986,-27.54599,4.3663354,97.0,11,-0.057987824
2.8517542,-3.4941049,-0.55377436,41.0,4,-0.05798552
3.319379,-4.069961,-0.45948508,37.0,5,-0.057980914
3.9695785,-4.870654,-0.32929787,36.0,6,-0.057976305
5.125476,-6.2911763,-0.14164373,33.0,7,-0.057971697
1.8547837,-2.2839394,-0.78836286,26.0,0,-0.057948656
6.397521,-7.880574,0.17717683,62.0,8,-0.057946354
2.0064983,-2.4725206,-0.73514,29.0,1,-0.05794405
10.442383,-12.872284,0.8686723,26.0,9,-0.057941746
2.2572458,-2.782498,-0.69645286,29.0,2,-0.05793944
23.951632,-29.535618,3.3269088,8.0,10,-0.057937138
2.5065565,-3.0920274,-0.630431,46.0,3,-0.057934836
22.385124,-27.623604,4.365604,100.0,11,-0.05793253
2.8314312,-3.4952784,-0.5523119,41.0,4,-0.057930227
3.313929,-4.0923615,-0.46070525,40.0,5,-0.05792562
3.9626033,-4.8969016,-0.33013523,36.0,6,-0.05792101
5.166509,-6.3892217,-0.14342389,27.0,7,-0.057916403
1.8383117,-2.2798724,-0.7847394,25.0,0,-0.057893362
6.3887978,-7.926211,0.1777004,66.0,8,-0.057891056
1.9966329,-2.477992,-0.7346902,32.0,1,-0.057888754
9.843627,-12.221148,0.8224073,1.0,9,-0.05788645
2.246288,-2.7888315,-0.69607127,28.0,2,-0.057884146
23.47603,-29.156588,3.274964,8.0,10,-0.057881843
2.4945095,-3.0992196,-0.63011813,43.0,3,-0.057879537
22.286074,-27.69848,4.3651166,92.0,11,-0.057877235
2.8229456,-3.5097816,-0.5530431,38.0,4,-0.05787493
3.2933817,-4.0961404,-0.45983368,49.0,5,-0.05787032
3.952992,-4.9200463,-0.33076328,34.0,6,-0.057865713
5.0853343,-6.3339295,-0.14178336,33.0,7,-0.057861105
1.8194761,-2.2727027,-0.7800806,26.0,0,-0.057838067
6.404823,-8.003109,0.17892207,46.0,8,-0.05783576
1.9904056,-2.4879901,-0.73559,32.0,1,-0.05783346
10.437088,-13.050938,0.87579,33.0,9,-0.057831153
2.2377656,-2.7981884,-0.69645286,30.0,2,-0.05782885
23.314398,-29.16366,3.2665973,8.0,10,-0.057826545
2.472577,-3.0940197,-0.6273023,41.0,3,-0.057824243
22.237576,-27.836592,4.374622,74.0,11,-0.057821937
2.8243032,-3.5366771,-0.55572426,41.0,4,-0.057819635
3.289008,-4.1200686,-0.4612282,60.0,5,-0.057815026
3.9283206,-4.924446,-0.33013523,32.0,6,-0.05781042
5.119285,-6.4220076,-0.14335407,36.0,7,-0.05780581
1.8235524,-2.294163,-0.78525704,36.0,0,-0.05778277
6.425364,-8.086477,0.18028337,54.0,8,-0.057780467
1.984133,-2.4979744,-0.7364898,34.0,1,-0.05777816
10.252368,-12.912105,0.8640667,31.0,9,-0.05777586
2.2328677,-2.812133,-0.69797933,29.0,2,-0.057773553
23.66828,-29.819147,3.330744,17.0,10,-0.05777125
2.4740398,-3.1181061,-0.630431,35.0,3,-0.057768945
2.825507,-3.5636246,-0.5584054,38.0,4,-0.057764336
3.2746062,-4.1315246,-0.4612282,57.0,5,-0.05775973
3.9396284,-4.974139,-0.3325427,42.0,6,-0.05775512
5.1315846,-6.483742,-0.14433141,36.0,7,-0.057750516
1.8179269,-2.3035474,-0.78629225,31.0,0,-0.057727475
6.363657,-8.066466,0.17934093,56.0,8,-0.05772517
1.972988,-2.5018249,-0.73559,32.0,1,-0.057722867
10.223099,-12.963283,0.86521816,30.0,9,-0.05772056
2.231546,-2.8307025,-0.7006507,39.0,2,-0.05771826
23.556646,-29.892193,3.329698,17.0,10,-0.057715952
2.4533615,-3.1143093,-0.6279281,32.0,3,-0.05771365
2.809367,-3.5687866,-0.55767417,46.0,4,-0.057709042
3.256468,-4.138232,-0.46070525,42.0,5,-0.057704434
3.9049568,-4.9658813,-0.33107728,34.0,6,-0.057699826
5.1174707,-6.5101557,-0.14454083,39.0,7,-0.057695217
1.8098751,-2.309879,-0.78629225,42.0,0,-0.057672177
6.327007,-8.074933,0.17906168,54.0,8,-0.057669874
1.9706888,-2.5160246,-0.73783946,38.0,1,-0.05766757
10.128535,-12.935987,0.8610313,30.0,9,-0.057665266
2.2131813,-2.8276527,-0.69797933,38.0,2,-0.05766296
23.749275,-30.353981,3.3718815,17.0,10,-0.057660658
2.4442377,-3.1239836,-0.6282409,38.0,3,-0.057658352
2.801185,-3.5827746,-0.5584054,44.0,4,-0.057653747
3.2579494,-4.169985,-0.4629713,58.0,5,-0.05764914
3.9093673,-5.0055623,-0.3328567,42.0,6,-0.05764453
5.072569,-6.499604,-0.14391254,54.0,7,-0.057639923
1.7974595,-2.3097699,-0.78422177,41.0,0,-0.057616882
6.30492,-8.104861,0.17923622,46.0,8,-0.057614576
1.9702682,-2.5336566,-0.7409888,34.0,1,-0.057612274
10.102929,-12.996493,0.862706,30.0,9,-0.057609968
2.200177,-2.8303263,-0.6968345,34.0,2,-0.057607666
23.831863,-30.66855,3.3980281,9.0,10,-0.057605363
2.4478595,-3.1512163,-0.63199526,45.0,3,-0.057603057
2.7728374,-3.5721452,-0.55523676,37.0,4,-0.05759845
3.2135675,-4.141413,-0.45861349,48.0,5,-0.05759384
3.8930948,-5.0207567,-0.33296138,46.0,6,-0.057589233
5.063324,-6.5346594,-0.1442965,36.0,7,-0.057584625
1.7811182,-2.3053288,-0.7805982,38.0,0,-0.057561588
6.374375,-8.25343,0.18202859,43.0,8,-0.05755928
1.9673667,-2.5482314,-0.7432383,42.0,1,-0.05755698
10.077027,-13.056977,0.8643807,37.0,9,-0.057554673
2.1950822,-2.8442059,-0.6983609,31.0,2,-0.05755237
23.909653,-30.991333,3.4245236,9.0,10,-0.057550065
2.450115,-3.1769488,-0.6354369,35.0,3,-0.057547763
2.7530813,-3.5723684,-0.55377436,35.0,4,-0.057543155
3.2197626,-4.1794376,-0.46157682,58.0,5,-0.057538547
3.8804185,-5.040646,-0.33338007,48.0,6,-0.05753394
5.053894,-6.569728,-0.14468044,39.0,7,-0.05752933
1.7695328,-2.3069336,-0.7790454,35.0,0,-0.05750629
6.3808136,-8.321651,0.18304084,48.0,8,-0.057503987
1.9525322,-2.54735,-0.7409888,36.0,1,-0.05750168
10.066616,-13.138049,0.86741626,28.0,9,-0.05749938
2.1743941,-2.8378253,-0.6949264,42.0,2,-0.057497073
24.181742,-31.571266,3.479257,9.0,10,-0.05749477
2.4342072,-3.179208,-0.63418543,41.0,3,-0.057492465
2.728532,-3.566191,-0.55133694,37.0,4,-0.057487857
3.2003117,-4.1843204,-0.46087953,57.0,5,-0.05748325
3.8712895,-5.0652685,-0.33411276,44.0,6,-0.05747864
5.0479236,-6.609579,-0.14516912,39.0,7,-0.057474032
1.766151,-2.3192441,-0.7811159,45.0,0,-0.057450995
6.374741,-8.3741045,0.18370403,65.0,8,-0.05744869
1.9294671,-2.5355406,-0.73559,39.0,1,-0.057446387
10.092037,-13.266895,0.8735919,32.0,9,-0.05744408
2.1787384,-2.8641486,-0.6995058,38.0,2,-0.05744178
24.04968,-31.626934,3.4761198,9.0,10,-0.057439473
2.429072,-3.1955485,-0.63574976,43.0,3,-0.05743717
2.7280743,-3.5915015,-0.55377436,41.0,4,-0.057432562
3.1880968,-4.19864,-0.4612282,57.0,5,-0.057427954
3.8692796,-5.099435,-0.3354735,42.0,6,-0.057423346
5.0163636,-6.616005,-0.14492479,42.0,7,-0.057418738
1.7592096,-2.326936,-0.78163356,45.0,0,-0.057395697
6.399726,-8.468096,0.18527475,63.0,8,-0.057393394
1.9253033,-2.5484798,-0.73738956,37.0,1,-0.05739109
10.067249,-13.325787,0.8752666,32.0,9,-0.057388786
2.1568959,-2.8560696,-0.6956896,42.0,2,-0.05738648
24.312473,-32.205227,3.5303304,19.0,10,-0.057384178
2.4000537,-3.1803567,-0.6310567,38.0,3,-0.057381872
2.6940076,-3.5724733,-0.54938704,41.0,4,-0.057377264
3.1806173,-4.219289,-0.46227407,54.0,5,-0.05737266
3.8538587,-5.116101,-0.33568287,34.0,6,-0.05736805
5.0569463,-6.71567,-0.14673983,45.0,7,-0.057363443
1.7545553,-2.337698,-0.7831865,42.0,0,-0.057340402
6.3464007,-8.455686,0.18454175,46.0,8,-0.057338096
1.9226892,-2.5626442,-0.73963904,33.0,1,-0.057335794
10.076997,-13.435943,0.8801862,40.0,9,-0.057333488
2.1480908,-2.8651521,-0.69607127,43.0,2,-0.057331186
24.406622,-32.565716,3.5604863,20.0,10,-0.057328884
2.4120028,-3.2183316,-0.6370012,43.0,3,-0.057326578
2.6726265,-3.568676,-0.54743713,33.0,4,-0.05732197
3.1706448,-4.2367463,-0.4629713,58.0,5,-0.05731736
3.8464434,-5.1416464,-0.33652022,40.0,6,-0.057312753
5.0346713,-6.7348833,-0.14677474,36.0,7,-0.057308145
1.745639,-2.3419542,-0.7826688,46.0,0,-0.057285104
6.333574,-8.5002365,0.18503042,52.0,8,-0.0572828
1.9020917,-2.5537114,-0.73514,28.0,1,-0.0572805
10.112336,-13.581574,0.8874086,30.0,9,-0.057278194
2.1462817,-2.8836572,-0.69874257,41.0,2,-0.05727589
24.410316,-32.79671,3.5768716,10.0,10,-0.057273585
2.4031124,-3.229901,-0.63762695,51.0,3,-0.057271283
2.7027912,-3.635333,-0.5562117,35.0,4,-0.057266675
3.1534598,-4.2445893,-0.46262267,52.0,5,-0.057262067
3.8704317,-5.2134414,-0.34028843,34.0,6,-0.05725746
5.0182815,-6.762051,-0.14698416,36.0,7,-0.05725285
1.7404903,-2.352996,-0.78422177,42.0,0,-0.05722981
6.317832,-8.544296,0.18548417,61.0,8,-0.057227507
1.8973525,-2.5669343,-0.73693967,33.0,1,-0.0572252
10.009078,-13.546261,0.88269836,31.0,9,-0.0572229
2.138031,-2.8946624,-0.6995058,42.0,2,-0.057220593
24.5042,-33.176033,3.6084218,20.0,10,-0.05721829
2.386565,-3.2323308,-0.6363755,46.0,3,-0.057215985
2.6988773,-3.657994,-0.5581617,35.0,4,-0.057211377
3.142611,-4.2625337,-0.46331993,54.0,5,-0.05720677
3.8631437,-5.2436724,-0.34133515,32.0,6,-0.05720216
5.0076933,-6.7997203,-0.14740302,40.0,7,-0.057197552
1.7318544,-2.3593597,-0.78422177,41.0,0,-0.057174515
6.2580814,-8.528702,0.18464647,56.0,8,-0.05717221
1.8775582,-2.5597289,-0.73289055,34.0,1,-0.057169907
9.85778,-13.439394,0.8734872,50.0,9,-0.0571676
2.1313965,-2.9068577,-0.7006507,47.0,2,-0.0571653
24.609762,-33.575768,3.642064,21.0,10,-0.057162993
2.3770366,-3.2442431,-0.6370012,48.0,3,-0.05716069
2.6708436,-3.6465728,-0.55499303,38.0,4,-0.057156082
3.1277127,-4.2734776,-0.46331993,52.0,5,-0.057151474
3.8283103,-5.2345552,-0.33986974,44.0,6,-0.057146866
4.9886484,-6.8236165,-0.14754264,40.0,7,-0.057142258
1.7297107,-2.3728952,-0.7868099,45.0,0,-0.057119217
6.2497845,-8.57688,0.18523984,58.0,8,-0.057116915
1.898891,-2.6068954,-0.744588,32.0,1,-0.05711461
9.874307,-13.555958,0.87893015,36.0,9,-0.057112306
2.1205895,-2.9123225,-0.70026904,41.0,2,-0.05711
24.70934,-33.947147,3.6734402,21.0,10,-0.0571077
2.3639407,-3.2489133,-0.6363755,50.0,3,-0.057105392
2.6552334,-3.6505938,-0.55426186,41.0,4,-0.057100784
3.1182096,-4.290272,-0.46401718,52.0,5,-0.057096176
3.832057,-5.2763095,-0.3417538,48.0,6,-0.05709157
4.958944,-6.830413,-0.14733322,40.0,7,-0.057086963
1.7195668,-2.3754883,-0.7857747,46.0,0,-0.057063922
6.282266,-8.681801,0.18705489,49.0,8,-0.057061616
1.8890936,-2.6115987,-0.74413806,33.0,1,-0.057059314
9.780116,-13.525602,0.8747433,26.0,9,-0.05705701
2.10977,-2.9177477,-0.69988745,49.0,2,-0.057054706
24.726185,-34.208134,3.6927888,22.0,10,-0.0570524
2.35084,-3.253532,-0.63574976,51.0,3,-0.057050098
2.6599047,-3.6839812,-0.5579179,39.0,4,-0.05704549
3.109795,-4.3086667,-0.46488872,42.0,5,-0.05704088
3.8016877,-5.271169,-0.34060243,58.0,6,-0.057036273
4.932733,-6.8444376,-0.14726341,36.0,7,-0.057031665
1.6988639,-2.3642194,-0.7800806,42.0,0,-0.057008624
6.262424,-8.718294,0.18736903,50.0,8,-0.05700632
1.8981518,-2.6435041,-0.7513365,33.0,1,-0.05700402
9.679271,-13.485024,0.8699284,40.0,9,-0.057001714
2.1133099,-2.944234,-0.7044668,37.0,2,-0.05699941
24.798271,-34.561337,3.72155,22.0,10,-0.056997105
2.3509822,-3.27777,-0.6388784,51.0,3,-0.056994803
2.6343083,-3.6754954,-0.55523676,37.0,4,-0.056990195
3.1179442,-4.351887,-0.46837494,40.0,5,-0.056985587
3.8030295,-5.312015,-0.34238186,48.0,6,-0.05698098
4.9413896,-6.9071517,-0.14824075,40.0,7,-0.05697637
1.6928445,-2.3732805,-0.7811159,41.0,0,-0.05695333
6.198285,-8.692884,0.1863568,56.0,8,-0.056951027
1.883257,-2.6421795,-0.74908704,32.0,1,-0.05694872
9.780487,-13.7269335,0.88332635,28.0,9,-0.05694642
2.1018803,-2.9499936,-0.70408523,39.0,2,-0.056944113
24.760704,-34.764534,3.7341006,22.0,10,-0.05694181
2.332652,-3.2763014,-0.6370012,45.0,3,-0.056939505
2.638724,-3.7089314,-0.5588929,45.0,4,-0.056934897
3.1027343,-4.362745,-0.46837494,33.0,5,-0.05693029
3.7613242,-5.2926974,-0.34028843,46.0,6,-0.05692568
54.328125,-76.475365,21.657387,55.0,14,-0.05692338
4.933458,-6.9471836,-0.14872941,40.0,7,-0.056921072
1.691248,-2.388635,-0.78422177,41.0,0,-0.056898035
6.24415,-8.822194,0.18866052,49.0,8,-0.05689573
1.8571397,-2.6248748,-0.7423385,33.0,1,-0.056893427
9.799401,-13.855568,0.8893974,35.0,9,-0.05689112
2.0961049,-2.9637241,-0.7056117,38.0,2,-0.05688882
24.816328,-35.101288,3.7609444,23.0,10,-0.056886513
2.3280418,-3.2941031,-0.6388784,48.0,3,-0.05688421
2.6246164,-3.716498,-0.5586491,46.0,4,-0.056879602
3.0943809,-4.383315,-0.46942082,39.0,5,-0.056874994
3.739373,-5.3008986,-0.3399744,44.0,6,-0.056870386
54.24503,-76.92573,21.73117,56.0,14,-0.05686808
4.9183946,-6.977438,-0.14900865,40.0,7,-0.056865778
1.6835922,-2.3963983,-0.7847394,40.0,0,-0.05705428
6.1635046,-8.77629,0.18719451,54.0,8,-0.05705198
1.864302,-2.6555882,-0.74908704,40.0,1,-0.057049673
9.795732,-13.953441,0.8934795,33.0,9,-0.05704737
2.0795894,-2.9633517,-0.70370364,37.0,2,-0.057045065
24.719547,-35.23768,3.765825,23.0,10,-0.057042763
2.3136845,-3.2993789,-0.63825274,50.0,3,-0.057040457
2.6155334,-3.7325952,-0.5596241,53.0,4,-0.05703585
3.0920115,-4.4142094,-0.47151256,40.0,5,-0.05703124
3.7508416,-5.3587475,-0.34280053,40.0,6,-0.057026632
54.08337,-77.29647,21.779762,56.0,14,-0.05702433
4.885984,-6.9830947,-0.14876431,43.0,7,-0.057022024
1.6840571,-2.4149375,-0.78888047,39.0,0,-0.056998987
6.134367,-8.79668,0.18719451,56.0,8,-0.05699668
1.8554854,-2.6617558,-0.74908704,36.0,1,-0.05699438
9.774371,-14.026877,0.8959917,25.0,9,-0.056992073
2.0692327,-2.970593,-0.70370364,43.0,2,-0.05698977
24.72846,-35.513416,3.7860453,11.0,10,-0.056987464
2.2869275,-3.2843375,-0.6338725,43.0,3,-0.056985162
2.6133456,-3.7559135,-0.5618177,45.0,4,-0.056980554
3.067485,-4.411889,-0.47011805,37.0,5,-0.056975946
3.7626874,-5.4137974,-0.34552202,46.0,6,-0.056971338
53.96907,-77.680244,21.837349,57.0,14,-0.05696903
4.8627195,-7.0017495,-0.14879921,43.0,7,-0.05696673
1.6694412,-2.4109793,-0.7857747,38.0,0,-0.05694369
6.128662,-8.854213,0.18796241,56.0,8,-0.056941386
1.8661417,-2.6970618,-0.7571853,36.0,1,-0.05693908
9.840099,-14.226817,0.9065635,30.0,9,-0.056936778
2.057137,-2.974209,-0.7029404,47.0,2,-0.056934472
24.635485,-35.63128,3.7898803,11.0,10,-0.05693217
2.284434,-3.305301,-0.6363755,50.0,3,-0.056929864
2.6058598,-3.7731802,-0.56303644,42.0,4,-0.056925256
3.0222754,-4.377767,-0.46541166,37.0,5,-0.056920648
3.7494373,-5.4351187,-0.34604537,51.0,6,-0.05691604
4.82236,-6.995631,-0.14831054,37.0,7,-0.056911435
1.6610152,-2.416792,-0.7857747,38.0,0,-0.056888394
6.146409,-8.9464245,0.18946333,45.0,8,-0.056886088
1.8445802,-2.6858892,-0.7522363,33.0,1,-0.056883786
2.0267417,-2.9522378,-0.69607127,37.0,2,-0.056879178
24.80858,-36.150745,3.8358984,12.0,10,-0.05687687
2.2751174,-3.316513,-0.6370012,50.0,3,-0.05687457
52.981457,-77.261696,11.502761,63.0,11,-0.056872264
2.6072638,-3.8035386,-0.566205,49.0,4,-0.05686996
3.0035968,-4.3833594,-0.46488872,39.0,5,-0.056865353
3.719159,-5.431694,-0.34499866,44.0,6,-0.056860745
4.819366,-7.043779,-0.14897373,46.0,7,-0.056856137
1.6721646,-2.4513013,-0.7950921,32.0,0,-0.056833096
6.030648,-8.843914,0.18684547,56.0,8,-0.056830794
1.8362916,-2.6939218,-0.75268626,36.0,1,-0.056828488
9.948597,-14.600513,0.9259279,39.0,9,-0.056826185
2.027479,-2.9755187,-0.69988745,43.0,2,-0.05682388
25.216125,-37.02095,3.9188707,12.0,10,-0.056821577
2.267974,-3.3309658,-0.63825274,51.0,3,-0.056819275
52.71144,-77.44616,11.502761,63.0,11,-0.05681697
2.601787,-3.8241053,-0.5679112,55.0,4,-0.056814667
3.0087948,-4.425645,-0.46820062,36.0,5,-0.05681006
3.6833367,-5.4198647,-0.34342858,42.0,6,-0.05680545
4.7666636,-7.0192018,-0.14810112,40.0,7,-0.056800842
1.6739968,-2.4734125,-0.80026853,32.0,0,-0.0567778
5.98517,-8.843383,0.1863917,50.0,8,-0.056775495
1.8334286,-2.7099996,-0.7553857,30.0,1,-0.056773193
9.855053,-14.572282,0.92195034,33.0,9,-0.05677089
2.0187588,-2.9861825,-0.7006507,49.0,2,-0.056768585
25.064653,-37.09001,3.9164302,12.0,10,-0.056766283
2.259067,-3.344166,-0.63919127,51.0,3,-0.056763977
2.5650938,-3.798616,-0.56279266,44.0,4,-0.05675937
2.996671,-4.441075,-0.46872357,34.0,5,-0.05675476
3.6712627,-5.4449205,-0.34416127,44.0,6,-0.056750152
4.7510743,-7.049063,-0.14838037,40.0,7,-0.056745544
1.6653527,-2.479241,-0.80026853,26.0,0,-0.056722507
5.9114714,-8.803834,0.18510023,60.0,8,-0.0567202
1.8245698,-2.7183192,-0.75583553,38.0,1,-0.0567179
9.875022,-14.717769,0.92885864,26.0,9,-0.056715593
2.0039473,-2.9866903,-0.6991242,43.0,2,-0.05671329
25.556522,-38.1039,4.014045,13.0,10,-0.056710985
