x,y,z,intensity,ring,time
1.5137217,3.8665357,-0.80712205,38.0,2,-0.00403474
1.6952486,4.3257656,-0.7358678,33.0,3,-0.0040301317
20.821703,53.103462,7.003588,29.0,11,-0.004027828
1.9775329,5.04348,-0.6651629,42.0,4,-0.004025524
2.3570943,6.0053406,-0.5644206,34.0,5,-0.004020916
3.139155,7.9896517,-0.44987994,55.0,6,-0.004016308
20.744741,52.79869,13.09665,9.0,14,-0.004014004
4.8416724,12.316516,-0.23100007,28.0,7,-0.0040117
1.1653489,2.9523625,-0.8504794,28.0,0,-0.00398866
9.275439,23.486963,0.44077796,24.0,8,-0.003986356
1.2438892,3.1481276,-0.78147995,22.0,1,-0.0039840518
1.512101,3.8249793,-0.7994897,41.0,2,-0.003979444
21.068008,53.26608,5.011455,21.0,10,-0.00397714
1.7124907,4.327468,-0.7371193,33.0,3,-0.003974836
20.98747,53.008278,7.0001755,29.0,11,-0.003972532
1.943095,4.9076953,-0.6481012,35.0,4,-0.003970228
23.438019,59.16756,10.0796995,28.0,12,-0.003967924
2.3946157,6.0419436,-0.56860405,47.0,5,-0.00396562
3.1236482,7.8733788,-0.4439136,52.0,6,-0.003961012
20.8809,52.6318,13.072356,9.0,14,-0.003958708
4.8397026,12.192592,-0.22897558,28.0,7,-0.003956404
18.706676,47.103485,13.5802355,23.0,15,-0.0039541
1.167571,2.9265397,-0.8442677,27.0,0,-0.00399971
9.225052,23.111088,0.4343555,26.0,8,-0.003997406
1.2886667,3.2267957,-0.80217546,32.0,1,-0.003995102
21.322393,53.39085,3.0129814,11.0,9,-0.0039927983
1.5129973,3.786596,-0.7926206,41.0,2,-0.003990494
21.257193,53.173695,5.0100603,42.0,10,-0.00398819
1.6894609,4.223954,-0.72053725,28.0,3,-0.003985886
1.9855347,4.959171,-0.6559009,38.0,4,-0.0039812783
2.4219291,6.0460734,-0.5698242,29.0,5,-0.00397667
3.1108599,7.758065,-0.43805203,52.0,6,-0.003972062
19.673746,49.038895,12.198647,7.0,14,-0.0039697583
4.8322353,12.044858,-0.22653224,32.0,7,-0.003967454
18.893578,47.07047,13.590589,23.0,15,-0.00396515
1.166947,2.8955696,-0.8365032,29.0,0,-0.003944414
8.629662,21.412956,0.40297607,2.0,8,-0.00394211
1.2723956,3.1556327,-0.7855291,38.0,1,-0.003939806
21.44289,53.15309,3.00377,23.0,9,-0.003937502
1.5159177,3.7558045,-0.787278,36.0,2,-0.0039351983
26.861895,66.51899,6.276259,47.0,10,-0.003932894
1.6901437,4.1853585,-0.71490556,28.0,3,-0.00393059
1.9960163,4.9378357,-0.6539509,38.0,4,-0.003925982
22.096636,54.63622,9.334446,18.0,12,-0.0039236783
2.413875,5.965553,-0.56302613,37.0,5,-0.003921374
3.1673002,7.823609,-0.44234356,63.0,6,-0.003916766
21.842258,53.925995,13.432277,9.0,14,-0.003914462
4.8201785,11.894478,-0.2240191,32.0,7,-0.0039121583
1.1466917,2.8183181,-0.81528,26.0,0,-0.003889118
8.699082,21.369736,0.40273172,12.0,8,-0.003886814
1.3083959,3.2125347,-0.8008258,22.0,1,-0.0038845101
21.614697,53.04464,3.0018861,35.0,9,-0.003882206
1.5142871,3.716213,-0.7800272,30.0,2,-0.0038799022
27.119959,66.52179,6.284975,47.0,10,-0.003877598
1.6749018,4.1062703,-0.70239085,31.0,3,-0.003875294
1.9344529,4.7378683,-0.62835836,27.0,4,-0.003870686
2.43515,5.961204,-0.5633747,39.0,5,-0.003866078
3.1703987,7.7533484,-0.43899405,47.0,6,-0.0038614701
26.383913,64.490875,16.086699,16.0,14,-0.003859166
4.8571153,11.866479,-0.22380966,32.0,7,-0.003856862
20.025595,48.900368,14.158955,27.0,15,-0.003854558
1.1858952,2.8857722,-0.8359856,28.0,0,-0.003833822
8.860316,21.550077,0.4067109,17.0,8,-0.003831518
1.2684479,3.0835953,-0.7697825,29.0,1,-0.003829214
21.85295,53.09815,3.009213,11.0,9,-0.0038269102
1.5287453,3.7145348,-0.7807904,33.0,2,-0.003824606
1.7148072,4.162498,-0.7130284,34.0,3,-0.0038199981
27.57673,66.906204,8.885494,46.0,11,-0.003817694
1.9615755,4.7567787,-0.63177073,37.0,4,-0.0038153902
2.4734197,5.9950294,-0.5673839,29.0,5,-0.003810782
3.2111685,7.7754617,-0.44087815,49.0,6,-0.003806174
19.838316,48.012432,11.99349,7.0,14,-0.0038038702
4.843506,11.716394,-0.2212965,36.0,7,-0.003801566
20.31727,49.122936,14.243849,28.0,15,-0.003799262
1.2004051,2.8923204,-0.83909136,27.0,0,-0.003778526
8.76983,21.120115,0.39917144,28.0,8,-0.003776222
1.3502302,3.2501123,-0.81252325,27.0,1,-0.0037739181
1.5507454,3.73093,-0.7853699,30.0,2,-0.0037693102
1.6898696,4.0616484,-0.69675916,35.0,3,-0.003764702
1.9903755,4.779224,-0.63567054,37.0,4,-0.003760094
2.4874358,5.9698057,-0.56581503,37.0,5,-0.003755486
3.177548,7.6185822,-0.43260908,39.0,6,-0.0037508782
19.995296,47.917706,11.987191,7.0,14,-0.003748574
4.8212037,11.548098,-0.21843432,36.0,7,-0.0037462702
20.217556,48.402866,14.055428,26.0,15,-0.003743966
1.1918243,2.8435707,-0.8261504,31.0,0,-0.0037232302
8.407361,20.049286,0.37948513,18.0,8,-0.0037209261
1.3615648,3.2453802,-0.81252325,27.0,1,-0.003718622
29.882042,71.19091,4.0463023,46.0,9,-0.0037163182
1.5561601,3.7073925,-0.7815537,32.0,2,-0.003714014
1.7346452,4.1285706,-0.709274,30.0,3,-0.0037094061
28.33701,67.4111,8.978602,48.0,11,-0.003707102
2.0170517,4.796035,-0.6388391,39.0,4,-0.0037047982
2.5036247,5.950068,-0.5647692,42.0,5,-0.00370019
3.1653616,7.5154104,-0.42737547,55.0,6,-0.003695582
26.372221,62.584045,15.679089,15.0,14,-0.0036932782
4.856045,11.518301,-0.21818998,44.0,7,-0.003690974
1.2032498,2.842951,-0.8271857,31.0,0,-0.003667934
8.433626,19.9167,0.3775305,11.0,8,-0.00366563
1.3561618,3.2011316,-0.80262536,33.0,1,-0.0036633261
1.5576003,3.6748233,-0.7758294,43.0,2,-0.003658718
27.851616,65.67809,6.2413974,46.0,10,-0.003656414
1.7374703,4.095215,-0.7045809,33.0,3,-0.00365411
28.499252,67.14001,8.955691,48.0,11,-0.0036518062
2.0073972,4.7268424,-0.63055205,39.0,4,-0.003649502
2.501001,5.886282,-0.55953985,39.0,5,-0.003644894
20.988525,49.373966,10.428475,33.0,13,-0.00364259
3.1587481,7.4271216,-0.42297927,42.0,6,-0.0036402862
4.882909,11.469999,-0.2175966,36.0,7,-0.003635678
1.2101276,2.8316288,-0.82511514,45.0,0,-0.003612638
8.570711,20.045263,0.38053226,31.0,8,-0.0036103341
1.3519996,3.160544,-0.7936273,22.0,1,-0.00360803
1.5704157,3.669365,-0.7758294,38.0,2,-0.003603422
1.7556452,4.098203,-0.7061453,45.0,3,-0.0035988141
28.858547,67.332054,8.994689,48.0,11,-0.00359651
2.009804,4.686966,-0.62616473,42.0,4,-0.0035942062
2.4885423,5.8006134,-0.5522188,37.0,5,-0.003589598
3.134215,7.2985973,-0.41628024,34.0,6,-0.00358499
26.808468,62.398422,15.679089,15.0,14,-0.0035826862
4.848684,11.280192,-0.21431555,36.0,7,-0.003580382
1.2337818,2.859315,-0.83443266,43.0,0,-0.003557342
8.5265045,19.750849,0.37550598,38.0,8,-0.003555038
1.3637959,3.1575947,-0.7940772,22.0,1,-0.0035527342
1.5816582,3.6602561,-0.7750662,51.0,2,-0.0035481262
28.088112,64.96997,6.1925898,45.0,10,-0.003545822
1.7393551,4.0213413,-0.6939434,48.0,3,-0.003543518
2.0285199,4.6853867,-0.6268959,40.0,4,-0.00353891
2.488976,5.7461853,-0.547861,40.0,5,-0.003534302
3.188276,7.353579,-0.42004842,42.0,6,-0.0035296942
21.177296,48.820957,12.285927,7.0,14,-0.00352739
4.8478637,11.175995,-0.21264012,32.0,7,-0.0035250862
1.2422129,2.8514485,-0.8333974,44.0,0,-0.0035020462
8.55042,19.627136,0.37369093,31.0,8,-0.0034997421
1.3501229,3.0976748,-0.78013027,21.0,1,-0.003497438
30.18379,69.21965,3.9575408,43.0,9,-0.003495134
1.6069871,3.683504,-0.7811721,51.0,2,-0.00349283
1.7479407,4.0046883,-0.6920662,56.0,3,-0.0034882221
28.443932,65.13658,8.727064,43.0,11,-0.003485918
2.0305345,4.6477103,-0.62275237,42.0,4,-0.003483614
2.510617,5.7411127,-0.5482096,27.0,5,-0.003479006
21.181177,48.435715,10.275828,32.0,13,-0.0034767021
3.2198474,7.359435,-0.4209905,42.0,6,-0.003474398
21.736052,49.65734,12.514478,8.0,14,-0.003472094
4.849949,11.074744,-0.2110345,28.0,7,-0.00346979
1.2563258,2.8579245,-0.8365032,30.0,0,-0.00344675
8.553666,19.448904,0.37086365,27.0,8,-0.003444446
1.3711301,3.1161318,-0.785979,32.0,1,-0.0034421422
1.6128641,3.66378,-0.7781191,55.0,2,-0.003437534
28.447752,64.5913,6.1748095,44.0,10,-0.00343523
1.7523499,3.9768705,-0.6883117,33.0,3,-0.003432926
28.510992,64.6736,8.678317,42.0,11,-0.0034306222
2.049949,4.6478596,-0.6237273,35.0,4,-0.003428318
2.380838,5.395535,-0.51596195,22.0,5,-0.0034237101
3.2188866,7.287861,-0.4175363,44.0,6,-0.0034191022
4.800447,10.858392,-0.20722988,24.0,7,-0.003414494
1.2467049,2.8093765,-0.82356226,25.0,0,-0.003391454
8.46409,19.064356,0.3640921,38.0,8,-0.0033891501
1.366968,3.0774887,-0.77743083,27.0,1,-0.003386846
1.6176716,3.6401863,-0.7743029,52.0,2,-0.003382238
27.792412,62.510834,5.9851594,40.0,10,-0.003379934
1.7541778,3.9436567,-0.6836187,31.0,3,-0.0033776301
29.140106,65.4805,8.800186,44.0,11,-0.003375326
2.0306358,4.5608826,-0.61300284,35.0,4,-0.0033730222
2.4239771,5.441792,-0.52119136,21.0,5,-0.003368414
3.271961,7.3386006,-0.42109516,60.0,6,-0.003363806
21.996458,49.31218,12.465888,8.0,14,-0.0033615022
4.822834,10.806873,-0.20656668,32.0,7,-0.003359198
1.2343901,2.7556427,-0.8090684,30.0,0,-0.003336158
8.427537,18.80477,0.3596941,46.0,8,-0.003333854
1.3466091,3.003349,-0.75988466,36.0,1,-0.0033315502
1.6367959,3.6488485,-0.7773559,41.0,2,-0.0033269422
1.7533699,3.9050717,-0.67798704,32.0,3,-0.003322334
1.9912089,4.430643,-0.5964286,33.0,4,-0.003317726
2.4315205,5.407857,-0.51875097,22.0,5,-0.0033131181
3.2664082,7.257926,-0.4171176,60.0,6,-0.00330851
22.038834,48.947235,12.393003,8.0,14,-0.003306206
4.837534,10.738921,-0.20558935,28.0,7,-0.0033039022
1.2487764,2.761879,-0.8121742,38.0,0,-0.003280862
8.45522,18.691427,0.3580885,46.0,8,-0.0032785581
1.4085083,3.1122546,-0.7886784,22.0,1,-0.003276254
30.46187,67.277695,3.8704536,39.0,9,-0.00327395
1.6446633,3.6323822,-0.7750662,40.0,2,-0.003271646
1.7849306,3.9385104,-0.6848702,36.0,3,-0.0032670381
2.0542266,4.528517,-0.6105655,39.0,4,-0.00326243
28.078392,61.869755,10.761127,38.0,12,-0.003260126
2.43968,5.3757496,-0.5164849,32.0,5,-0.003257822
3.2743788,7.208292,-0.4149195,57.0,6,-0.003253214
24.139784,53.117252,13.470069,9.0,14,-0.00325091
4.8435316,10.652799,-0.20426297,28.0,7,-0.003248606
1.2223182,2.6784155,-0.78888047,45.0,0,-0.0032255661
8.511274,18.64179,0.35770452,44.0,8,-0.003223262
1.3853564,3.0328712,-0.7697825,28.0,1,-0.0032209582
1.6361171,3.580192,-0.7651441,36.0,2,-0.00321635
28.505123,62.346836,5.9977093,40.0,10,-0.0032140461
1.8085271,3.9538126,-0.6886246,39.0,3,-0.003211742
29.110497,63.61219,8.589596,40.0,11,-0.0032094382
2.0782845,4.5393686,-0.61300284,53.0,4,-0.003207134
2.4941065,5.4450917,-0.5239803,34.0,5,-0.0032025261
3.269557,7.131458,-0.41115132,63.0,6,-0.0031979182
24.33804,53.061012,13.477267,9.0,14,-0.003195614
4.8888383,10.658487,-0.20468183,36.0,7,-0.00319331
23.745522,51.745388,15.255312,35.0,15,-0.0031910061
1.2777257,2.7741497,-0.81838584,39.0,0,-0.00317027
8.548782,18.560793,0.35669228,46.0,8,-0.0031679661
1.4467852,3.139763,-0.79812634,31.0,1,-0.003165662
1.6453148,3.5673287,-0.7636177,32.0,2,-0.003161054
1.8083854,3.9190958,-0.6836187,42.0,3,-0.0031564462
1.9701414,4.2657304,-0.5769295,30.0,4,-0.0031518382
2.497215,5.4019904,-0.5206684,30.0,5,-0.00314723
3.2948632,7.1242027,-0.41136068,63.0,6,-0.003142622
23.225803,50.196255,12.769122,8.0,14,-0.0031403182
4.897455,10.579658,-0.20349507,32.0,7,-0.003138014
1.2991272,2.7961774,-0.8261504,34.0,0,-0.0031149741
8.590765,18.481874,0.35574985,44.0,8,-0.00311267
1.4462329,3.109955,-0.79182774,42.0,1,-0.003110366
27.717321,59.575745,3.4436016,24.0,9,-0.003108062
1.638087,3.5209124,-0.75484043,29.0,2,-0.0031057582
1.8220556,3.9127588,-0.6836187,42.0,3,-0.00310115
29.011297,62.27176,8.435065,37.0,11,-0.003098846
2.0395293,4.375779,-0.59277254,51.0,4,-0.003096542
2.478907,5.3160343,-0.51317304,24.0,5,-0.0030919341
3.307039,7.085511,-0.40979058,55.0,6,-0.003087326
23.40749,50.12899,12.772721,8.0,14,-0.003085022
4.92928,10.551625,-0.20328563,32.0,7,-0.003082718
1.2949389,2.7618902,-0.8173506,32.0,0,-0.003059678
8.590692,18.31418,0.35309708,42.0,8,-0.0030573742
1.4744649,3.1419353,-0.8012757,39.0,1,-0.00305507
27.774033,59.156807,3.42497,23.0,9,-0.003052766
1.6320124,3.4760754,-0.7464448,29.0,2,-0.003050462
28.308743,60.268284,5.82549,36.0,10,-0.003048158
1.8222598,3.8777704,-0.6786128,37.0,3,-0.0030458542
2.039584,4.3362985,-0.5883852,31.0,4,-0.003041246
2.5025373,5.3181663,-0.51421887,29.0,5,-0.003036638
22.517801,47.83113,10.27621,32.0,13,-0.0030343342
3.301117,7.008876,-0.4060224,57.0,6,-0.00303203
24.776802,52.581944,13.41968,9.0,14,-0.003029726
4.9123545,10.420404,-0.20108663,38.0,7,-0.0030274221
1.3029201,2.75386,-0.8163153,32.0,0,-0.0030043821
8.495425,17.947903,0.3466048,24.0,8,-0.003002078
1.4971006,3.161426,-0.8075743,39.0,1,-0.0029997742
1.6256448,3.4313245,-0.73804927,37.0,2,-0.002995166
28.45063,60.025078,5.8115444,36.0,10,-0.0029928621
1.8611765,3.924931,-0.6879989,35.0,3,-0.002990558
2.1057749,4.436755,-0.6030096,42.0,4,-0.00298595
28.199274,59.387535,10.412592,33.0,12,-0.002983646
2.4988673,5.2626023,-0.50968677,34.0,5,-0.002981342
22.684639,47.75223,10.27621,32.0,13,-0.002979038
3.3212707,6.9882927,-0.405499,55.0,6,-0.0029767342
26.67566,56.102985,14.34198,12.0,14,-0.00297443
4.8877125,10.274981,-0.19860838,34.0,7,-0.002972126
1.3158536,2.756269,-0.81838584,32.0,0,-0.002949086
8.452023,17.69619,0.3423115,44.0,8,-0.002946782
1.4820821,3.1016726,-0.7936273,32.0,1,-0.002944478
25.657238,53.67096,3.1176534,12.0,9,-0.0029421742
1.6562401,3.4645972,-0.7464448,32.0,2,-0.00293987
28.563725,59.724087,5.7920218,35.0,10,-0.002937566
1.8714566,3.9112828,-0.68674743,36.0,3,-0.002935262
28.484163,59.50436,8.100168,31.0,11,-0.002932958
2.1126764,4.4114738,-0.6005722,42.0,4,-0.0029306542
28.471287,59.424126,10.43637,33.0,12,-0.0029283501
2.5249715,5.2700186,-0.51125556,37.0,5,-0.002926046
23.275478,48.55795,10.467019,33.0,13,-0.002923742
3.3223283,6.928032,-0.4026729,52.0,6,-0.002921438
22.429037,46.750153,11.970996,7.0,14,-0.0029191342
4.869899,10.146086,-0.19644429,31.0,7,-0.0029168301
1.328821,2.7586205,-0.8204564,26.0,0,-0.0028937901
8.409563,17.45041,0.3381229,44.0,8,-0.002891486
1.4632767,3.0350435,-0.7778807,30.0,1,-0.002889182
25.575457,53.02339,3.085205,12.0,9,-0.002886878
1.6214138,3.3615377,-0.7254559,28.0,2,-0.0028845742
28.76855,59.616848,5.791325,35.0,10,-0.0028822701
1.9082834,3.9527586,-0.69519484,37.0,3,-0.002879966
28.379185,58.75749,8.011935,29.0,11,-0.002877662
2.0589702,4.2610817,-0.58107305,39.0,4,-0.002875358
28.706013,59.38131,10.446382,33.0,12,-0.0028730542
2.5442157,5.2629685,-0.5114299,37.0,5,-0.0028707501
3.309088,6.8390837,-0.398172,55.0,6,-0.002866142
4.710924,9.727677,-0.18866052,22.0,7,-0.0028615342
1.329153,2.734853,-0.8147624,29.0,0,-0.0028384943
8.391732,17.259092,0.33498147,52.0,8,-0.0028361902
1.493469,3.0702221,-0.7882285,33.0,1,-0.002833886
1.6279825,3.345266,-0.7231661,32.0,2,-0.0028292781
28.962538,59.487392,5.7885356,35.0,10,-0.002826974
1.8891997,3.8785877,-0.6833058,31.0,3,-0.0028246702
28.528448,58.543865,7.996336,29.0,11,-0.002822366
2.071221,4.248516,-0.5803418,33.0,4,-0.002820062
28.883694,59.22037,10.435745,33.0,12,-0.0028177581
2.5320036,5.1913786,-0.505329,40.0,5,-0.002815454
27.977163,57.336308,12.401059,45.0,13,-0.0028131502
3.3250535,6.811338,-0.39722994,60.0,6,-0.002810846
25.578676,52.374466,13.456573,9.0,14,-0.002808542
4.726419,9.673442,-0.18792751,26.0,7,-0.0028062381
1.336139,2.724993,-0.8132095,27.0,0,-0.002783198
8.364744,17.051956,0.3315259,46.0,8,-0.002780894
1.4878639,3.0317512,-0.7796803,32.0,1,-0.0027785902
19.566784,39.852745,2.3267522,6.0,9,-0.002776286
1.6552236,3.3712847,-0.73003525,32.0,2,-0.002773982
28.938128,58.913807,5.7425175,34.0,10,-0.002771678
1.9044687,3.875516,-0.6839316,31.0,3,-0.002769374
28.820196,58.62207,8.02071,29.0,11,-0.0027670702
2.1096952,4.2893553,-0.5869228,37.0,4,-0.002764766
28.973354,58.881687,10.39382,33.0,12,-0.002762462
2.5527472,5.1878724,-0.5058519,42.0,5,-0.002760158
3.3391047,6.77998,-0.39607856,65.0,6,-0.0027555502
27.229837,55.26533,14.223656,23.0,14,-0.002753246
4.6602483,9.454206,-0.18398328,21.0,7,-0.002750942
1.3593484,2.7480175,-0.8214917,28.0,0,-0.002727902
8.218441,16.606857,0.323428,24.0,8,-0.002725598
1.4967091,3.0230463,-0.7787805,32.0,1,-0.002723294
19.363602,39.09335,2.2863488,6.0,9,-0.0027209902
1.6643682,3.360208,-0.7288904,31.0,2,-0.0027186861
1.9004381,3.8334472,-0.6776742,31.0,3,-0.002714078
2.1017134,4.2357316,-0.5805856,36.0,4,-0.0027094702
2.6151364,5.26816,-0.5145675,22.0,5,-0.002704862
3.369859,6.7825933,-0.39691594,72.0,6,-0.002700254
27.367085,55.05825,14.194861,23.0,14,-0.0026979502
4.561442,9.172884,-0.17881736,21.0,7,-0.0026956461
18.838459,37.866837,11.332651,13.0,15,-0.002693342
1.3585808,2.722513,-0.81528,27.0,0,-0.00267148
7.4349656,14.89271,0.29054767,6.0,8,-0.0026691759
1.4994166,3.0021124,-0.77473146,31.0,1,-0.002666872
18.586445,37.21354,2.1800022,5.0,9,-0.002664568
1.6427404,3.287642,-0.7143889,37.0,2,-0.002662264
29.138475,58.28977,5.70138,33.0,10,-0.00265996
1.9191105,3.8373907,-0.6795514,31.0,3,-0.0026576559
29.139935,58.241917,7.996336,29.0,11,-0.002655352
2.1095295,4.2163115,-0.5788794,39.0,4,-0.002653048
30.045488,60.025593,10.6316,36.0,12,-0.002650744
2.5612497,5.114696,-0.5004482,30.0,5,-0.00264844
3.3756175,6.735077,-0.39482248,57.0,6,-0.002643832
27.521587,54.91144,14.180465,23.0,14,-0.002641528
4.5461254,9.066539,-0.17703721,24.0,7,-0.002639224
27.761139,55.34123,16.589783,42.0,15,-0.00263692
1.3728123,2.7283468,-0.81838584,27.0,0,-0.0026161838
7.4258714,14.751871,0.28827888,20.0,8,-0.00261388
1.510238,2.998865,-0.7751813,36.0,1,-0.0026115759
18.621685,36.9769,2.1697443,5.0,9,-0.002609272
1.6554012,3.2856822,-0.71515214,30.0,2,-0.002606968
1.9380484,3.843353,-0.6817415,32.0,3,-0.00260236
2.1252892,4.212837,-0.5793669,39.0,4,-0.002597752
2.5629296,5.07594,-0.49748495,32.0,5,-0.0025931438
3.3745103,6.6775,-0.39210105,57.0,6,-0.002588536
28.157936,55.71908,14.413065,12.0,14,-0.002586232
4.5454884,8.990739,-0.17585045,45.0,7,-0.002583928
19.118835,37.799675,11.350251,26.0,15,-0.0025816238
1.3731114,2.7065513,-0.8132095,32.0,0,-0.002560888
7.4005394,14.580941,0.28541663,24.0,8,-0.0025585839
1.525469,3.0042655,-0.7778807,34.0,1,-0.00255628
16.520006,32.52051,1.9116232,4.0,9,-0.002553976
1.6662872,3.2801752,-0.71515214,37.0,2,-0.002551672
28.713835,56.500225,5.5448484,30.0,10,-0.002549368
1.9651082,3.8650787,-0.68674743,41.0,3,-0.0025470639
29.347374,57.697037,7.9480753,28.0,11,-0.00254476
2.1462848,4.217777,-0.58107305,34.0,4,-0.002542456
30.005255,58.939514,10.475166,34.0,12,-0.002540152
2.5652597,5.036782,-0.49452168,43.0,5,-0.002537848
3.3930097,6.6591535,-0.39168233,50.0,6,-0.00253324
4.5386868,8.9,-0.17438444,42.0,7,-0.002528632
1.3698164,2.6757069,-0.8054449,31.0,0,-0.0025055918
7.365723,14.387706,0.2821356,26.0,8,-0.002503288
1.529729,2.9867806,-0.77473146,38.0,1,-0.002500984
15.952175,31.13307,1.8333287,4.0,9,-0.00249868
1.6747154,3.267058,-0.71362567,33.0,2,-0.002496376
29.01163,56.5719,5.562279,30.0,10,-0.0024940718
1.963031,3.8262131,-0.68111575,40.0,3,-0.002491768
2.1582723,4.2049623,-0.5803418,49.0,4,-0.00248716
2.636541,5.132357,-0.50480604,40.0,5,-0.0024825518
3.3342867,6.4850364,-0.3821572,38.0,6,-0.002477944
19.788414,38.471054,9.987826,4.0,14,-0.00247564
4.5413733,8.828975,-0.1733024,38.0,7,-0.002473336
19.498922,37.892033,11.418579,13.0,15,-0.0024710319
1.3534447,2.6211293,-0.7904334,26.0,0,-0.002450296
7.390885,14.307309,0.28108847,48.0,8,-0.0024479919
1.5469279,2.9932725,-0.7778807,37.0,1,-0.002445688
15.991973,30.944124,1.8254783,38.0,9,-0.002443384
1.6906185,3.2699115,-0.7155338,38.0,2,-0.00244108
1.9700195,3.8070571,-0.67892563,45.0,3,-0.0024364719
2.188453,4.2273717,-0.5844854,43.0,4,-0.002431864
28.84621,55.69752,9.934528,26.0,12,-0.0024295598
2.6516895,5.117816,-0.50428313,37.0,5,-0.002427256
3.4056358,6.567328,-0.38770482,59.0,6,-0.002422648
19.656626,37.905262,9.857805,14.0,14,-0.002420344
4.5546656,8.779344,-0.1726392,45.0,7,-0.0024180398
1.3888909,2.6680336,-0.8059625,32.0,0,-0.0023949998
7.3911724,14.192274,0.27930832,48.0,8,-0.002392696
1.5550442,2.9846702,-0.77698094,37.0,1,-0.002390392
15.884084,30.487078,1.8016131,12.0,9,-0.002388088
1.726862,3.3130336,-0.72621906,38.0,2,-0.002385784
28.79724,55.224804,5.448977,27.0,10,-0.0023834798
1.9890281,3.8127635,-0.68111575,38.0,3,-0.002381176
2.1868467,4.190173,-0.5803418,51.0,4,-0.002376568
28.814976,55.188313,9.860691,25.0,12,-0.002374264
2.6538858,5.0807395,-0.5014941,35.0,5,-0.0023719599
28.781857,55.07802,12.079737,43.0,13,-0.002369656
3.3931568,6.4905095,-0.38383192,47.0,6,-0.002367352
19.76415,37.80533,9.848807,14.0,14,-0.002365048
4.5689244,8.735841,-0.17208073,45.0,7,-0.002362744
1.4147867,2.695915,-0.8157977,35.0,0,-0.002339704
7.3303647,13.962305,0.27525935,33.0,8,-0.0023373999
1.5123767,2.8794322,-0.7508866,29.0,1,-0.002335096
15.986698,30.424372,1.8011944,20.0,9,-0.002332792
1.7268796,3.2864337,-0.72163963,29.0,2,-0.002330488
28.729866,54.65286,5.4019127,26.0,10,-0.002328184
1.9823533,3.7694314,-0.6745455,32.0,3,-0.0023258799
2.1931355,4.166706,-0.57814825,48.0,4,-0.002321272
28.764454,54.625965,9.778094,24.0,12,-0.002318968
2.673506,5.077199,-0.5020171,39.0,5,-0.002316664
3.374622,6.403244,-0.37933105,49.0,6,-0.002312056
4.592862,8.7074585,-0.1718364,42.0,7,-0.002307448
1.4205732,2.6841304,-0.8137271,29.0,0,-0.0022844078
7.005711,13.231494,0.26133233,26.0,8,-0.002282104
1.5662037,2.9567947,-0.7724819,36.0,1,-0.0022798
15.400752,29.062443,1.7237372,11.0,9,-0.002277496
1.7291476,3.2630389,-0.71782345,29.0,2,-0.002275192
1.9779143,3.7293305,-0.668601,32.0,3,-0.002270584
2.2058065,4.1555176,-0.57766074,49.0,4,-0.002265976
28.969793,54.553127,9.783099,24.0,12,-0.002263672
2.656639,5.002727,-0.49556756,42.0,5,-0.0022613679
29.161596,54.891247,12.0820265,43.0,13,-0.002259064
3.4222574,6.4390464,-0.3821572,47.0,6,-0.00225676
29.711588,55.879356,14.611021,12.0,14,-0.0022544558
4.5743933,8.599569,-0.17002134,33.0,7,-0.002252152
1.4035556,2.6297305,-0.79871565,25.0,0,-0.002229112
7.0584517,13.219305,0.26157668,43.0,8,-0.0022268079
1.5801861,2.9581861,-0.7742815,34.0,1,-0.002224504
14.953308,27.981546,1.6627135,7.0,9,-0.0022222
1.7238723,3.2258155,-0.7109543,32.0,2,-0.0022198958
1.96297,3.6701474,-0.6592149,30.0,3,-0.0022152879
2.1491,4.014783,-0.5591366,34.0,4,-0.00221068
2.6843653,5.01052,-0.49731067,40.0,5,-0.002206072
3.4371665,6.412977,-0.38131982,47.0,6,-0.002201464
20.236305,37.74056,9.886599,9.0,14,-0.00219916
4.4956803,8.3808975,-0.16600728,23.0,7,-0.0021968558
19.968023,37.209023,11.315051,13.0,15,-0.002194552
1.4205109,2.6381764,-0.80285674,38.0,0,-0.0021738159
7.1367826,13.25445,0.26276344,63.0,8,-0.002171512
1.5886549,2.9492207,-0.7733817,36.0,1,-0.002169208
14.83487,27.528301,1.6388483,21.0,9,-0.002166904
1.746863,3.2402132,-0.7155338,29.0,2,-0.0021646
1.9576492,3.6281586,-0.65295756,28.0,3,-0.002159992
2.241364,4.152245,-0.5793669,40.0,4,-0.002155384
2.6298668,4.8678956,-0.484063,39.0,5,-0.0021507759
29.380014,54.359917,12.011045,42.0,13,-0.002148472
3.4444978,6.3704705,-0.37954038,49.0,6,-0.002146168
20.296621,37.52215,9.848807,9.0,14,-0.002143864
4.405032,8.143536,-0.16160928,26.0,7,-0.00214156
1.4186503,2.6128285,-0.79664505,44.0,0,-0.00211852
7.137588,13.140346,0.2610182,49.0,8,-0.0021162159
1.5715407,2.89201,-0.75988466,34.0,1,-0.002113912
14.731559,27.109583,1.6169719,29.0,9,-0.002111608
1.7337838,3.1892493,-0.7056117,37.0,2,-0.002109304
1.9665247,3.6143627,-0.6517061,30.0,3,-0.002104696
2.1818213,4.008399,-0.56035525,35.0,4,-0.002100088
29.883331,54.878258,9.896984,26.0,12,-0.002097784
2.6659043,4.8936787,-0.48754922,37.0,5,-0.00209548
29.804476,54.68799,12.106449,43.0,13,-0.002093176
3.458111,6.3426247,-0.37859833,49.0,6,-0.002090872
4.4698167,8.194821,-0.16293567,23.0,7,-0.002086264
1.4412177,2.63353,-0.8044096,42.0,0,-0.0020632239
7.1187077,13.00259,0.2587494,45.0,8,-0.00206092
1.5483571,2.826962,-0.74413806,38.0,1,-0.002058616
14.286964,26.084877,1.5586696,3.0,9,-0.0020563118
1.7320853,3.1611001,-0.7006507,37.0,2,-0.002054008
1.9889469,3.6268742,-0.6551476,38.0,3,-0.0020494
29.042358,52.937256,7.4138002,17.0,11,-0.002047096
2.2600276,4.1194887,-0.5769295,45.0,4,-0.0020447918
29.34091,53.459316,9.658578,22.0,12,-0.002042488
2.67924,4.8795724,-0.48702627,40.0,5,-0.0020401839
29.92516,54.478733,12.0820265,43.0,13,-0.00203788
3.4377656,6.255855,-0.37409744,42.0,6,-0.002035576
29.426203,53.548172,14.106231,11.0,14,-0.0020332718
4.574034,8.320143,-0.16572805,30.0,7,-0.002030968
18.96855,34.489426,10.546877,10.0,15,-0.0020286639
1.4499437,2.6287358,-0.8044096,43.0,0,-0.002007928
7.15792,12.97191,0.25860977,45.0,8,-0.002005624
1.5963374,2.8917596,-0.7625841,48.0,1,-0.00200332
13.985927,25.325006,1.5161728,16.0,9,-0.002001016
1.7596433,3.186273,-0.70751977,34.0,2,-0.0019987118
1.9904529,3.6012406,-0.6517061,36.0,3,-0.001994104
29.227365,52.85802,7.416238,18.0,11,-0.0019918
2.2580578,4.082045,-0.572786,48.0,4,-0.001989496
29.550308,53.398045,9.666087,22.0,12,-0.0019871918
2.6933627,4.86496,-0.48650333,34.0,5,-0.001984888
3.4265542,6.186766,-0.3706433,49.0,6,-0.00198028
30.274057,54.638332,14.421162,12.0,14,-0.001977976
4.5681505,8.241161,-0.16447149,23.0,7,-0.0019756719
19.043844,34.341908,10.52203,10.0,15,-0.001973368
1.4360873,2.5812001,-0.7914687,40.0,0,-0.0019526319
7.1535764,12.857724,0.25682962,56.0,8,-0.001950328
1.5732504,2.8265736,-0.7468375,27.0,1,-0.0019480239
13.975129,25.09805,1.5054963,29.0,9,-0.0019457199
1.7407364,3.1249194,-0.695308,36.0,2,-0.001943416
2.0094094,3.6042738,-0.6535832,35.0,3,-0.001938808
29.057898,52.121094,7.327029,16.0,11,-0.0019365039
2.2800295,4.088007,-0.5747359,48.0,4,-0.0019342
2.6675992,4.7789826,-0.47883365,36.0,5,-0.0019295919
29.638556,53.07547,11.81642,41.0,13,-0.001927288
3.44239,6.1619596,-0.36991057,54.0,6,-0.0019249839
4.528598,8.102975,-0.16202815,26.0,7,-0.001920376
20.517426,36.69659,11.265358,13.0,15,-0.0019180719
1.4498149,2.5845957,-0.79405683,37.0,0,-0.001897336
7.072453,12.602972,0.25225708,42.0,8,-0.0018950319
1.5778766,2.8105922,-0.74413806,31.0,1,-0.001892728
13.8524475,24.67467,1.4829918,25.0,9,-0.0018904239
1.747789,3.1119764,-0.69378155,34.0,2,-0.00188812
1.9968135,3.5524654,-0.6454487,40.0,3,-0.0018835119
29.176748,51.886192,7.3089924,15.0,11,-0.0018812079
2.310569,4.1073055,-0.5786357,54.0,4,-0.001878904
29.546564,52.522453,9.544694,21.0,12,-0.0018766
2.6950147,4.7887406,-0.48075107,40.0,5,-0.001874296
3.4501545,6.1255436,-0.3684452,54.0,6,-0.0018696879
29.82816,52.93645,14.027948,11.0,14,-0.001867384
4.5038476,7.993041,-0.16014329,22.0,7,-0.0018650799
19.469084,34.537956,10.6234865,11.0,15,-0.001862776
1.4502686,2.5643854,-0.78939813,34.0,0,-0.0018420399
7.0226626,12.41757,0.24901094,38.0,8,-0.001839736
1.5574398,2.7527657,-0.7301911,28.0,1,-0.0018374319
13.813534,24.40543,1.4696984,31.0,9,-0.001835128
1.7547712,3.0990233,-0.6922551,34.0,2,-0.001832824
30.255644,53.411404,5.370537,26.0,10,-0.0018305199
2.0261075,3.5767624,-0.6510803,33.0,3,-0.001828216
29.479788,52.020584,7.341654,16.0,11,-0.0018259119
2.325157,4.1013465,-0.5788794,51.0,4,-0.001823608
2.683202,4.729049,-0.47569603,39.0,5,-0.0018189999
29.526375,52.0392,11.630191,40.0,13,-0.001816696
3.438901,6.058485,-0.36509567,42.0,6,-0.0018143919
30.061264,52.938927,14.054942,11.0,14,-0.001812088
4.4191213,7.7790546,-0.15616412,22.0,7,-0.001809784
19.285984,33.93569,10.4588785,10.0,15,-0.0018074799
1.4377193,2.5226374,-0.7780101,27.0,0,-0.001786744
6.980788,12.243583,0.24600913,42.0,8,-0.0017844399
1.5969697,2.7997878,-0.74413806,42.0,1,-0.0017821359
12.910765,22.625818,1.3652358,2.0,9,-0.001779832
1.7883898,3.134112,-0.70141387,32.0,2,-0.001777528
2.0209465,3.5387924,-0.6454487,31.0,3,-0.0017729199
29.342127,51.358913,7.262682,15.0,11,-0.0017706159
2.3227146,4.063906,-0.5747359,54.0,4,-0.001768312
2.6889765,4.702831,-0.47395292,37.0,5,-0.001763704
29.7546,52.01764,11.648508,40.0,13,-0.0017613999
3.4272943,5.9892383,-0.3616415,38.0,6,-0.0017590959
20.895224,36.499874,9.709787,4.0,14,-0.001756792
4.4045043,7.6907034,-0.15469813,28.0,7,-0.0017544879
19.19497,33.50274,10.346033,20.0,15,-0.001752184
1.4272685,2.484102,-0.7676573,28.0,0,-0.0017314479
6.939768,12.073514,0.24307711,29.0,8,-0.001729144
1.6329623,2.8398085,-0.7562855,36.0,1,-0.0017268399
12.880121,22.390173,1.353722,10.0,9,-0.001724536
1.773867,3.0836036,-0.69149184,43.0,2,-0.001722232
2.033288,3.5317156,-0.6454487,36.0,3,-0.001717624
29.44594,51.125435,7.244158,15.0,11,-0.0017153199
2.324991,4.035135,-0.571811,48.0,4,-0.001713016
29.763502,51.63512,9.439569,19.0,12,-0.001710712
2.7193072,4.7175813,-0.47639325,37.0,5,-0.0017084079
3.4232252,5.9339895,-0.35902467,42.0,6,-0.0017037999
29.820345,51.67119,13.773303,10.0,14,-0.001701496
4.39333,7.6094728,-0.15337174,31.0,7,-0.001699192
19.238344,33.308407,10.306692,10.0,15,-0.0016968879
1.4649783,2.5292559,-0.7831865,34.0,0,-0.001676152
6.896655,11.902146,0.2401102,39.0,8,-0.0016738479
1.6428659,2.8340907,-0.7562855,37.0,1,-0.0016715439
12.941284,22.324873,1.3523613,18.0,9,-0.00166924
1.8161358,3.13174,-0.70370364,33.0,2,-0.001666936
29.706238,51.20477,5.179143,22.0,10,-0.001664632
2.0575032,3.545098,-0.6492031,27.0,3,-0.0016623279
29.863432,51.434357,7.3026557,15.0,11,-0.0016600239
2.3490336,4.04416,-0.57424843,49.0,4,-0.00165772
29.926622,51.52248,9.437067,19.0,12,-0.001655416
2.7517755,4.735623,-0.47918224,34.0,5,-0.0016531119
30.806707,52.995064,11.915259,42.0,13,-0.0016508079
3.4489396,5.930636,-0.35954806,49.0,6,-0.0016485039
19.697226,33.8568,9.043032,4.0,14,-0.0016462
4.3531785,7.48251,-0.15110293,34.0,7,-0.001643896
19.560547,33.60841,10.419538,10.0,15,-0.0016415919
1.4679543,2.5141165,-0.7800806,38.0,0,-0.001620856
6.8604665,11.749693,0.23749235,30.0,8,-0.0016185519
1.6296479,2.789925,-0.7459377,28.0,1,-0.0016162479
13.024157,22.288193,1.3528845,23.0,9,-0.001613944
1.7725627,3.0321622,-0.6827146,38.0,2,-0.00161164
2.0393302,3.4871004,-0.63981706,33.0,3,-0.0016070319
2.3574188,4.027781,-0.5730297,45.0,4,-0.001602424
29.659142,50.654007,9.296902,18.0,12,-0.00160012
2.720956,4.64519,-0.4709896,37.0,5,-0.0015978159
30.273767,51.683083,11.642784,40.0,13,-0.0015955119
3.4382956,5.8674693,-0.3564079,42.0,6,-0.0015932079
19.759123,33.705563,9.020087,32.0,14,-0.001590904
4.4065804,7.513847,-0.15204537,37.0,7,-0.0015886
20.000353,34.08978,10.590359,11.0,15,-0.0015862959
1.473344,2.5042398,-0.77852774,37.0,0,-0.00156556
6.8355055,11.613658,0.23522353,39.0,8,-0.0015632559
1.6443199,2.7926164,-0.74818724,36.0,1,-0.0015609519
12.976187,22.0292,1.3399053,31.0,9,-0.001558648
1.821468,3.09224,-0.69759774,34.0,2,-0.001556344
31.215303,52.971943,5.379252,26.0,10,-0.0015540399
2.0454705,3.469751,-0.6379398,36.0,3,-0.0015517359
29.464605,49.96116,7.1218014,15.0,11,-0.0015494319
2.3139672,3.9220746,-0.5591366,28.0,4,-0.001547128
29.699213,50.318813,9.254351,18.0,12,-0.001544824
2.7444482,4.6498666,-0.4723841,37.0,5,-0.0015425199
3.403905,5.7625694,-0.3507556,29.0,6,-0.001537912
19.95497,33.768925,9.05563,16.0,14,-0.001535608
4.370708,7.3934116,-0.14991617,31.0,7,-0.001533304
20.882347,35.310104,10.992045,12.0,15,-0.0015309999
1.4771488,2.4907737,-0.7759395,28.0,0,-0.001510264
6.710707,11.311119,0.22956894,43.0,8,-0.0015079599
1.6301876,2.7466397,-0.73738956,40.0,1,-0.0015056559
12.424872,20.925886,1.2754273,4.0,9,-0.001503352
1.8242316,3.0723584,-0.6945448,32.0,2,-0.001501048
2.0797708,3.4999492,-0.64482296,40.0,3,-0.0014964399
29.602293,49.796577,7.1130266,15.0,11,-0.0014941359
2.3590975,3.9668653,-0.5666925,33.0,4,-0.001491832
29.858532,50.187668,9.249346,18.0,12,-0.001489528
2.7586265,4.636833,-0.4720355,37.0,5,-0.0014872239
22.022753,37.002254,8.370028,20.0,13,-0.0014849199
3.4658885,5.821015,-0.35504717,38.0,6,-0.001482616
21.640415,36.33096,9.762876,32.0,14,-0.001480312
4.382157,7.354062,-0.1494275,37.0,7,-0.001478008
20.732452,34.779015,10.849177,11.0,15,-0.0014757039
1.4788964,2.4739947,-0.7723161,29.0,0,-0.0014549679
6.6680465,11.150326,0.22677657,40.0,8,-0.0014526639
1.6497693,2.757656,-0.7418886,41.0,1,-0.0014503599
12.511182,20.904665,1.2767881,19.0,9,-0.001448056
1.8399867,3.0743945,-0.69645286,41.0,2,-0.001445752
30.511763,50.96126,5.196574,22.0,10,-0.0014434479
2.1072001,3.5180883,-0.649516,45.0,3,-0.0014411439
2.372931,3.9586058,-0.5666925,35.0,4,-0.001436536
29.946157,49.93745,9.222439,18.0,12,-0.001434232
2.7829914,4.640846,-0.47342998,42.0,5,-0.0014319279
21.673063,36.127155,8.189141,18.0,13,-0.0014296239
3.4471328,5.7438045,-0.35106963,44.0,6,-0.00142732
20.128044,33.525208,9.027736,4.0,14,-0.001425016
4.395447,7.318148,-0.14900865,37.0,7,-0.001422712
1.4805447,2.4572341,-0.76869255,32.0,0,-0.0013996719
6.6346636,11.0071,0.22433324,37.0,8,-0.0013973679
1.6603911,2.7535498,-0.7423385,33.0,1,-0.0013950639
12.463378,20.660769,1.2645415,26.0,9,-0.00139276
1.8496941,3.0662718,-0.69607127,47.0,2,-0.001390456
2.0265615,3.356822,-0.62104493,18.0,3,-0.0013858479
29.787094,49.32021,7.074516,15.0,11,-0.001383544
2.3200078,3.8398604,-0.55084944,34.0,4,-0.00138124
21.438887,35.46962,6.564304,8.0,12,-0.001378936
2.7816548,4.6021156,-0.4704667,30.0,5,-0.0013766319
21.3216,35.26167,8.00978,34.0,13,-0.0013743279
3.4650931,5.72832,-0.3508603,40.0,6,-0.001372024
20.739326,34.271683,9.248188,24.0,14,-0.00136972
4.404398,7.2753897,-0.14845017,28.0,7,-0.001367416
21.070805,34.792065,10.89887,12.0,15,-0.0013651119
1.5071625,2.4817731,-0.7780101,32.0,0,-0.00131321
6.6543593,10.95311,0.22370495,45.0,8,-0.001310906
1.6831495,2.7693865,-0.74818724,39.0,1,-0.001308602
12.178085,20.03733,1.2288483,18.0,9,-0.001306298
1.8573256,3.0547643,-0.6949264,38.0,2,-0.001303994
32.119606,52.806705,5.4074907,26.0,10,-0.00130169
2.0136235,3.3092265,-0.61353606,27.0,3,-0.001299386
2.425289,3.9826343,-0.57254225,40.0,4,-0.001294778
21.494738,35.297104,6.5455317,16.0,12,-0.001292474
2.7945914,4.587273,-0.46994376,33.0,5,-0.00129017
21.430244,35.163563,8.004437,17.0,13,-0.001287866
3.490267,5.7247148,-0.35138363,44.0,6,-0.001285562
20.536135,33.67002,9.105119,4.0,14,-0.001283258
4.3451967,7.124168,-0.1456578,21.0,7,-0.001280954
20.642714,33.83148,10.619346,11.0,15,-0.00127865
1.5319523,2.5028608,-0.78629225,41.0,0,-0.001257914
6.65828,10.878111,0.2226229,48.0,8,-0.00125561
1.6984303,2.7737606,-0.7508866,36.0,1,-0.001253306
12.218748,19.947008,1.2259176,36.0,9,-0.001251002
1.8731072,3.0566313,-0.6968345,43.0,2,-0.001248698
2.0359423,3.3210566,-0.61697763,20.0,3,-0.00124409
29.491112,48.087463,6.926323,14.0,11,-0.0012417859
2.3377883,3.8104424,-0.5488996,34.0,4,-0.001239482
21.518612,35.060238,6.5154963,7.0,12,-0.001237178
2.810586,4.577491,-0.46994376,39.0,5,-0.001234874
22.202116,36.159714,8.24791,19.0,13,-0.00123257
3.4904172,5.6824756,-0.34949955,46.0,6,-0.001230266
20.846634,33.925495,9.192849,8.0,14,-0.001227962
4.3574705,7.0885153,-0.14523894,24.0,7,-0.001225658
20.748547,33.73946,10.613133,22.0,15,-0.001223354
1.5382162,2.4944775,-0.78525704,40.0,0,-0.001202618
6.6804605,10.829277,0.22209933,40.0,8,-0.001200314
1.6804705,2.723039,-0.73873925,32.0,1,-0.00119801
12.215911,19.786968,1.2186952,42.0,9,-0.001195706
1.8822008,3.048733,-0.69645286,54.0,2,-0.001193402
2.0506384,3.3189704,-0.6179162,30.0,3,-0.001188794
22.568953,36.513733,5.2706056,24.0,11,-0.0011864901
2.3448086,3.7921302,-0.54743713,33.0,4,-0.001184186
21.665812,35.025227,6.523005,7.0,12,-0.001181882
2.8362327,4.585089,-0.47168687,30.0,5,-0.001179578
21.656704,34.996845,7.9998584,17.0,13,-0.001177274
3.4976122,5.649881,-0.34824347,44.0,6,-0.0011749701
21.889378,35.34527,9.598212,4.0,14,-0.001172666
4.444326,7.1735544,-0.14729832,33.0,7,-0.001170362
21.708836,35.02646,11.0417385,12.0,15,-0.001168058
1.538756,2.475967,-0.7811159,45.0,0,-0.001147322
6.604194,10.6224785,0.2183296,36.0,8,-0.001145018
1.7156963,2.7585254,-0.7499868,41.0,1,-0.0011427139
12.223706,19.645853,1.2126243,42.0,9,-0.00114041
1.8689762,3.0038054,-0.68767565,41.0,2,-0.001138106
37.205776,59.773605,6.159819,44.0,10,-0.001135802
2.0904043,3.3570666,-0.6263637,31.0,3,-0.001133498
22.678421,36.406094,5.2664623,8.0,11,-0.001131194
2.3926785,3.8395176,-0.5554805,35.0,4,-0.00112889
21.877825,35.09354,6.549912,8.0,12,-0.001126586
2.802682,4.495695,-0.46349424,37.0,5,-0.001124282
21.631199,34.684486,7.9456687,17.0,13,-0.001121978
3.4834836,5.5834126,-0.344894,42.0,6,-0.001119674
21.911514,35.106625,9.554121,13.0,14,-0.00111737
4.447097,7.122378,-0.14656532,36.0,7,-0.001115066
22.422527,35.897503,11.340933,13.0,15,-0.001112762
1.5514919,2.4771292,-0.7831865,46.0,0,-0.001092026
6.5414324,10.440073,0.21504855,37.0,8,-0.001089722
1.7046136,2.7194972,-0.7409888,39.0,1,-0.0010874181
12.214529,19.48675,1.2052971,40.0,9,-0.001085114
1.8898805,3.0138955,-0.69149184,55.0,2,-0.00108281
2.1199577,3.3781953,-0.63168246,26.0,3,-0.001078202
29.92552,47.668392,6.910723,14.0,11,-0.0010758981
2.331516,3.7138743,-0.5384188,35.0,4,-0.001073594
22.346018,35.5812,6.6547227,16.0,12,-0.00107129
2.837433,4.5162535,-0.46663183,36.0,5,-0.001068986
3.5146477,5.5898166,-0.34604537,40.0,6,-0.0010643781
22.471764,35.739864,9.746679,4.0,14,-0.001062074
4.477078,7.1177487,-0.14677474,39.0,7,-0.00105977
20.956997,33.304924,10.543771,21.0,15,-0.001057466
1.5380491,2.4376607,-0.7723161,37.0,0,-0.00103673
6.549325,10.376052,0.21417592,33.0,8,-0.001034426
1.7167444,2.7187724,-0.7423385,26.0,1,-0.001032122
11.854678,18.774006,1.1636378,18.0,9,-0.001029818
1.9030097,3.0125918,-0.69263667,55.0,2,-0.001027514
32.3688,51.222237,5.301161,24.0,10,-0.00102521
2.0899832,3.3060277,-0.61948055,28.0,3,-0.001022906
22.760183,35.98915,5.228439,16.0,11,-0.001020602
2.3798933,3.7631657,-0.5467059,33.0,4,-0.001018298
21.774242,34.416817,6.4504194,7.0,12,-0.001015994
2.9184577,4.6111975,-0.47743914,33.0,5,-0.00101369
21.784872,34.40707,7.9159026,33.0,13,-0.001011386
3.4914868,5.5123262,-0.34196317,42.0,6,-0.001009082
21.810188,34.43372,9.410152,12.0,14,-0.001006778
4.496377,7.0961046,-0.14663512,36.0,7,-0.001004474
21.588596,34.057602,10.804661,11.0,15,-0.00100217
1.5492338,2.4374378,-0.773869,40.0,0,-0.000981434
6.4463615,10.13828,0.20970812,33.0,8,-0.00097913
1.7351633,2.7278633,-0.7463876,40.0,1,-0.0009768261
11.740007,18.449425,1.1460528,37.0,9,-0.000974522
1.9003422,2.986388,-0.6880573,52.0,2,-0.000972218
2.085018,3.2740862,-0.6147875,25.0,3,-0.00096761
22.702362,35.635555,5.1879787,32.0,11,-0.000965306
2.3684754,3.7163332,-0.5410999,34.0,4,-0.000963002
21.947323,34.4239,6.466063,7.0,12,-0.000960698
2.8758929,4.5107756,-0.46802634,39.0,5,-0.000958394
21.892527,34.3247,7.913613,33.0,13,-0.00095609
3.4732168,5.4434733,-0.33840433,42.0,6,-0.00095378596
21.966927,34.414886,9.425899,17.0,14,-0.000951482
4.506055,7.05677,-0.14614646,39.0,7,-0.000949178
23.044762,36.075687,11.470343,13.0,15,-0.00094687403
1.5452273,2.412495,-0.7676573,32.0,0,-0.000926138
6.5227103,10.179696,0.2110345,37.0,8,-0.00092383404
1.7436241,2.720149,-0.7459377,44.0,1,-0.00092153
11.733168,18.297373,1.1391445,33.0,9,-0.000919226
1.8959163,2.9566007,-0.6827146,48.0,2,-0.000916922
2.0878997,3.2534873,-0.6122846,30.0,3,-0.000912314
22.866266,35.617912,5.1969967,16.0,11,-0.00091000996
2.4168344,3.7631624,-0.5491433,33.0,4,-0.000907706
22.137833,34.456764,6.4867125,7.0,12,-0.000905402
2.8980837,4.510766,-0.46907222,34.0,5,-0.000903098
21.50056,33.45203,7.729673,15.0,13,-0.000900794
3.4975994,5.4397154,-0.3389277,36.0,6,-0.00089848996
21.824434,33.92989,9.313873,17.0,14,-0.000896186
4.541479,7.0578146,-0.14649549,27.0,7,-0.000893882
22.695818,35.25756,11.235335,26.0,15,-0.00089157803
1.5347824,2.3778696,-0.7583398,38.0,0,-0.000870842
6.5224113,10.101426,0.20988265,40.0,8,-0.000868538
1.7340753,2.6845815,-0.73783946,33.0,1,-0.000866234
11.635458,18.006355,1.1235484,41.0,9,-0.00086393
1.907808,2.9512792,-0.68309623,47.0,2,-0.000861626
36.13514,55.899174,5.823398,36.0,10,-0.000859322
2.113188,3.2677438,-0.6163519,28.0,3,-0.000857018
29.693953,45.89989,6.7123203,13.0,11,-0.00085471396
2.414857,3.7313707,-0.54573095,35.0,4,-0.00085241
22.442616,34.664486,6.5405254,15.0,12,-0.000850106
2.8821032,4.4499454,-0.46384284,39.0,5,-0.00084780203
23.019375,35.528114,8.228829,19.0,13,-0.000845498
3.4566784,5.333005,-0.33306605,28.0,6,-0.00084319396
21.992546,33.930363,9.335019,12.0,14,-0.00084089
4.51713,6.9664173,-0.14492479,33.0,7,-0.000838586
22.875532,35.265633,11.263288,13.0,15,-0.00083628204
1.5466475,2.3770866,-0.75989276,35.0,0,-0.000815546
6.5550256,10.07075,0.20974302,39.0,8,-0.000813242
1.7237,2.6471791,-0.7292913,36.0,1,-0.000810938
11.586917,17.787865,1.1125579,31.0,9,-0.000808634
1.9121803,2.9343982,-0.6808065,31.0,2,-0.00080633
2.119758,3.251702,-0.6147875,32.0,3,-0.000801722
23.110815,35.4384,5.194803,16.0,11,-0.000799418
2.3992307,3.6776063,-0.53915,34.0,4,-0.000797114
22.582483,34.601845,6.5442805,8.0,12,-0.00079481
2.8973055,4.4376836,-0.46366853,40.0,5,-0.000792506
22.756502,34.841908,8.089157,18.0,13,-0.000790202
3.4379666,5.2617784,-0.32940254,22.0,6,-0.000787898
22.467455,34.386246,9.483037,4.0,14,-0.000785594
4.527316,6.9263787,-0.1444361,33.0,7,-0.00078329
1.5500526,2.3633244,-0.75730455,34.0,0,-0.00076025
6.3286095,9.645393,0.20136586,27.0,8,-0.000757946
1.7472916,2.662023,-0.73514,34.0,1,-0.000755642
11.314668,17.238052,1.0806329,21.0,9,-0.000753338
1.9267216,2.9342704,-0.682333,43.0,2,-0.000751034
32.48347,49.451385,5.176354,22.0,10,-0.00074873
2.037282,3.100288,-0.5875679,34.0,3,-0.000746426
22.830553,34.72975,5.103157,7.0,11,-0.000744122
2.4371347,3.70736,-0.544756,35.0,4,-0.000741818
21.526556,32.733704,6.20513,20.0,12,-0.000739514
2.9204426,4.4391947,-0.46488872,36.0,5,-0.00073721
22.916851,34.821293,8.102896,18.0,13,-0.000734906
3.4079874,5.176347,-0.32479697,20.0,6,-0.000732602
22.34516,33.93977,9.381359,17.0,14,-0.000730298
4.473371,6.7919636,-0.14195788,24.0,7,-0.000727994
23.499311,35.665646,11.444461,13.0,15,-0.00072569
1.5610753,2.3630075,-0.7588575,37.0,0,-0.00070495397
6.417895,9.7111025,0.20318091,43.0,8,-0.00070265
1.736765,2.6269531,-0.7270418,34.0,1,-0.000700346
11.250609,17.017168,1.0691191,19.0,9,-0.000698042
1.9494368,2.9475155,-0.6869124,36.0,2,-0.000695738
2.1402266,3.2335293,-0.6141618,31.0,3,-0.00069113
22.82173,34.466835,5.075615,38.0,11,-0.000688826
2.4307816,3.6711218,-0.54061246,34.0,4,-0.000686522
21.757172,32.846584,6.240172,6.0,12,-0.000684218
2.9384503,4.4344673,-0.46541166,39.0,5,-0.000681914
22.63299,34.14294,7.96246,17.0,13,-0.00067961
3.3743598,5.0884485,-0.31998208,28.0,6,-0.000677306
22.512522,33.948307,9.4043045,8.0,14,-0.000675002
4.4848166,6.7604265,-0.14160882,39.0,7,-0.000672698
26.781536,40.35528,12.977705,38.0,15,-0.000670394
1.5689036,2.3578172,-0.7588575,37.0,0,-0.000649658
6.429007,9.65814,0.20251772,42.0,8,-0.000647354
1.7260243,2.5919833,-0.71894354,32.0,1,-0.00064505
11.174848,16.775003,1.056349,34.0,9,-0.000642746
1.9352555,2.9050882,-0.67851686,34.0,2,-0.000640442
2.1706603,3.2559998,-0.6197934,29.0,3,-0.000635834
23.235495,34.840168,5.1419115,15.0,11,-0.00063353
2.4623115,3.6906865,-0.544756,35.0,4,-0.000631226
23.242441,34.824245,6.631258,16.0,12,-0.000628922
2.9332302,4.3948708,-0.46227407,45.0,5,-0.000626618
22.835487,34.201576,7.9937525,17.0,13,-0.000624314
3.3912144,5.0772314,-0.31998208,41.0,6,-0.00062201
22.625465,33.861416,9.402054,17.0,14,-0.000619706
4.4405994,6.6433196,-0.13947964,28.0,7,-0.000617402
26.872833,40.187687,12.953894,18.0,15,-0.000615098
1.5825039,2.360349,-0.76144564,40.0,0,-0.000594362
6.406991,9.552602,0.2007725,56.0,8,-0.000592058
1.7328893,2.5827065,-0.71804374,40.0,1,-0.000589754
11.153197,16.616493,1.0488126,35.0,9,-0.00058745
1.9300671,2.8754933,-0.67317414,36.0,2,-0.000585146
2.1643884,3.2221673,-0.6147875,29.0,3,-0.000580538
23.509768,34.98622,5.1755476,16.0,11,-0.000578234
2.4541388,3.6507664,-0.54012495,34.0,4,-0.00057593
21.959484,32.65456,6.2326627,20.0,12,-0.000573626
2.8907375,4.2986326,-0.45320985,34.0,5,-0.000571322
23.761288,35.320557,8.274623,19.0,13,-0.000569018
3.4044573,5.058734,-0.3195634,37.0,6,-0.000566714
23.514042,34.92674,9.720585,4.0,14,-0.00056441
4.4224324,6.5664086,-0.13818815,31.0,7,-0.000562106
27.090683,40.20899,12.991164,19.0,15,-0.000559802
1.5864062,2.3484085,-0.75937515,40.0,0,-0.000539066
6.482842,9.593141,0.20209888,34.0,8,-0.000536762
1.7713629,2.6202312,-0.7301911,30.0,1,-0.000534458
10.536447,15.579836,0.98569554,3.0,9,-0.000532154
1.9400922,2.8687391,-0.67317414,34.0,2,-0.00052985
23.981028,35.44648,3.7442107,22.0,10,-0.000527546
2.184481,3.227679,-0.61729044,29.0,3,-0.000525242
23.871021,35.25736,5.2279515,56.0,11,-0.000522938
2.4735456,3.6520395,-0.5415874,38.0,4,-0.000520634
22.855621,33.732254,6.453548,7.0,12,-0.00051833
2.7839086,4.1087275,-0.4342099,45.0,5,-0.000516026
23.626669,34.85713,8.185325,18.0,13,-0.000513722
3.4052804,5.022024,-0.31799328,41.0,6,-0.000511418
30.475183,44.92717,12.533373,8.0,14,-0.000509114
4.445328,6.5509305,-0.13818815,31.0,7,-0.00050680997
1.6000296,2.3508413,-0.7619633,37.0,0,-0.00048376998
6.3362207,9.305983,0.1965141,39.0,8,-0.000481466
1.7234519,2.53028,-0.7067962,36.0,1,-0.00047916197
10.675111,15.666753,0.9935459,19.0,9,-0.000476858
1.9456716,2.8554602,-0.6716477,36.0,2,-0.00047455402
24.038414,35.26542,3.7339263,22.0,10,-0.00047225
2.2113144,3.2428834,-0.62167066,41.0,3,-0.000469946
24.072245,35.288616,5.245013,8.0,11,-0.00046764198
2.5500588,3.7368443,-0.5554805,41.0,4,-0.000465338
22.917553,33.57069,6.437905,7.0,12,-0.00046303403
2.917309,4.273409,-0.4526869,51.0,5,-0.00046073
23.64633,34.62529,8.150215,18.0,13,-0.00045842602
3.4216645,5.008457,-0.31788865,41.0,6,-0.00045612198
30.145823,44.10938,12.334516,7.0,14,-0.000453818
4.4636493,6.528774,-0.13804853,28.0,7,-0.00045151397
27.152615,39.699963,12.887636,18.0,15,-0.00044921
1.6082263,2.3452415,-0.7619633,37.0,0,-0.00042847398
6.384496,9.306897,0.19700275,40.0,8,-0.00042617
1.7223504,2.5097873,-0.7027471,31.0,1,-0.00042386597
10.665983,15.542337,0.98789364,37.0,9,-0.000421562
1.9334049,2.8162796,-0.66401535,25.0,2,-0.00041925802
24.157959,35.176384,3.7334034,34.0,10,-0.000416954
2.133135,3.1048918,-0.5966411,36.0,3,-0.00041465
30.055496,43.731026,6.5153794,12.0,11,-0.00041234598
2.477611,3.6036036,-0.53695637,27.0,4,-0.000410042
24.165783,35.148335,6.7557793,8.0,12,-0.00040773797
2.9615633,4.3058815,-0.45721903,60.0,5,-0.000405434
23.851637,34.665455,8.179218,18.0,13,-0.00040313002
3.4130774,4.958645,-0.3154812,48.0,6,-0.000400826
4.4353776,6.441466,-0.13651273,40.0,7,-0.00039621798
1.6240891,2.3507395,-0.7655868,41.0,0,-0.000373178
6.203907,8.979661,0.19051047,35.0,8,-0.000370874
1.7760904,2.5697901,-0.7211931,36.0,1,-0.00036856998
10.700866,15.477079,0.9861142,36.0,9,-0.000366266
1.9275881,2.7869086,-0.6586727,41.0,2,-0.00036396203
24.29648,35.114777,3.7358437,34.0,10,-0.000361658
2.1614025,3.1237924,-0.601647,22.0,3,-0.00035935402
30.003778,43.3471,6.472969,25.0,11,-0.00035704998
2.5064998,3.6198475,-0.54061246,35.0,4,-0.000354746
24.112864,34.810436,6.7069716,8.0,12,-0.00035244197
2.9709024,4.2873282,-0.45634744,43.0,5,-0.000350138
23.89714,34.48612,8.155559,18.0,13,-0.00034783402
3.4386063,4.96043,-0.31631854,48.0,6,-0.00034553
30.265448,43.643753,12.261632,7.0,14,-0.000343226
4.4156632,6.3651505,-0.13522124,35.0,7,-0.00034092198
26.010168,37.47956,12.224025,16.0,15,-0.000338618
1.628565,2.340584,-0.76403385,44.0,0,-0.00031788205
6.4122887,9.212342,0.19592072,39.0,8,-0.00031557796
1.7739147,2.5475817,-0.71669406,36.0,1,-0.00031327398
10.626958,15.256087,0.97439086,30.0,9,-0.00031097
1.9581392,2.8111095,-0.6659234,42.0,2,-0.00030866603
24.419634,35.04381,3.7368896,22.0,10,-0.00030636205
2.2027943,3.1599817,-0.6100945,33.0,3,-0.00030405796
30.06404,43.111866,6.4534698,12.0,11,-0.000301754
2.4884555,3.5671172,-0.5340315,35.0,4,-0.00029945
24.1958,34.670975,6.696335,8.0,12,-0.00029714603
2.9178295,4.1810555,-0.44606307,37.0,5,-0.00029484194
23.945425,34.29948,8.131135,18.0,13,-0.00029253797
3.4536147,4.9451213,-0.3161092,46.0,6,-0.000290234
27.676529,39.614414,11.1566725,23.0,14,-0.00028793002
4.448161,6.364453,-0.13553539,38.0,7,-0.00028562604
26.23826,37.52786,12.269576,32.0,15,-0.00028332195
1.6067857,2.2921734,-0.75005764,40.0,0,-0.00026258605
6.388147,9.109679,0.19421038,39.0,8,-0.00026028196
1.8062981,2.5748765,-0.726142,42.0,1,-0.00025797798
10.436925,14.872308,0.9522005,23.0,9,-0.000255674
1.9171915,2.7319407,-0.6487506,41.0,2,-0.00025337003
24.555557,34.97792,3.7389812,11.0,10,-0.00025106606
2.2444634,3.1959205,-0.61854196,28.0,3,-0.00024876196
30.406067,43.27953,6.4944177,12.0,11,-0.000246458
2.51459,3.5778978,-0.53695637,35.0,4,-0.000244154
24.282587,34.53783,6.6869483,8.0,12,-0.00024185004
2.928968,4.165956,-0.44554016,36.0,5,-0.00023954595
24.424181,34.72634,8.25249,19.0,13,-0.00023724197
3.4582145,4.9150667,-0.3149578,41.0,6,-0.000234938
27.318865,38.813206,10.957815,28.0,14,-0.00023263402
