x,y,z,intensity,ring,time
8.924481,-5.5658116,0.92019033,35.0,10,-0.06454879
2.713355,-1.6928595,-0.5065349,56.0,3,-0.06454649
15.9845705,-9.976634,2.3135679,20.0,11,-0.064544186
3.0140393,-1.8819183,-0.4362923,42.0,4,-0.06454188
36.74314,-22.950747,6.8615294,18.0,12,-0.064539574
3.318819,-2.073023,-0.34234774,43.0,5,-0.06453727
3.724198,-2.328041,-0.23017356,33.0,6,-0.06453267
41.126526,-25.71867,11.198513,17.0,14,-0.06453036
4.4263835,-2.7691348,-0.09113646,39.0,7,-0.064528055
32.14422,-20.117153,10.160719,9.0,15,-0.06452575
2.0568726,-1.2907741,-0.6506711,47.0,0,-0.06450502
5.1130233,-3.209881,0.10537763,42.0,8,-0.06450271
2.2278755,-1.3991698,-0.6073678,53.0,1,-0.06450041
6.624355,-4.1618967,0.40999994,33.0,9,-0.064498104
2.452021,-1.5405362,-0.56288654,46.0,2,-0.0644958
8.904999,-5.5969296,0.92019033,38.0,10,-0.06449349
2.7040844,-1.7002176,-0.50590914,54.0,3,-0.06449119
16.206738,-10.194079,2.3508599,20.0,11,-0.06448889
3.0124924,-1.8955994,-0.43702352,43.0,4,-0.064486586
36.73803,-23.126215,6.8756084,18.0,12,-0.06448428
3.314935,-2.0867178,-0.34269637,42.0,5,-0.06448197
3.8613784,-2.4325812,-0.23917533,32.0,6,-0.06447737
41.32007,-26.040783,11.275897,18.0,14,-0.06447507
4.4674377,-2.8165631,-0.092183605,39.0,7,-0.06447276
31.10974,-19.621191,9.855312,18.0,15,-0.064470455
2.0490892,-1.2958809,-0.64963585,49.0,0,-0.06444972
5.093338,-3.222364,0.10520311,40.0,8,-0.06444742
2.2196846,-1.4048535,-0.606468,45.0,1,-0.06444511
6.6283484,-4.196748,0.41115132,33.0,9,-0.064442806
2.4333587,-1.5406843,-0.55983365,49.0,2,-0.0644405
8.89214,-5.632245,0.9208876,44.0,10,-0.0644382
2.6897902,-1.70436,-0.50434476,41.0,3,-0.0644359
15.416573,-9.772334,2.2411776,20.0,11,-0.06443359
2.9957983,-1.899725,-0.43556106,45.0,4,-0.06443129
36.828888,-23.363306,6.9078336,18.0,12,-0.064428985
3.3711896,-2.1394215,-0.34932023,53.0,5,-0.06442668
3.916938,-2.4867234,-0.24315289,35.0,6,-0.06442207
40.959133,-26.013517,11.202113,17.0,14,-0.06441977
4.4744573,-2.8428645,-0.09253266,39.0,7,-0.06441747
31.093233,-19.762825,9.871877,18.0,15,-0.06441516
2.032923,-1.2961127,-0.64601237,52.0,0,-0.06439442
5.1124096,-3.2594733,0.10583139,40.0,8,-0.06439212
2.2344832,-1.4251682,-0.61186683,59.0,1,-0.06438982
6.667538,-4.254237,0.41450083,33.0,9,-0.064387515
2.421076,-1.5453675,-0.5583072,45.0,2,-0.064385206
8.918456,-5.694821,0.9257683,44.0,10,-0.0643829
2.6901844,-1.7184606,-0.5055962,41.0,3,-0.0643806
15.462666,-9.877383,2.2528768,16.0,11,-0.0643783
2.9774399,-1.902688,-0.4338549,37.0,4,-0.06437599
36.72714,-23.478954,6.9040794,27.0,12,-0.06437369
3.3502727,-2.1425886,-0.34792572,38.0,5,-0.064371385
3.8808818,-2.4838367,-0.24147813,35.0,6,-0.06436677
40.78966,-26.116182,11.181868,23.0,14,-0.06436447
4.4442973,-2.845527,-0.0921138,39.0,7,-0.06436217
31.072863,-19.902502,9.887406,18.0,15,-0.064359866
2.025136,-1.3011125,-0.6449771,51.0,0,-0.06433913
5.2030425,-3.3441427,0.10796059,47.0,8,-0.06433682
2.2358015,-1.4375643,-0.6136665,46.0,1,-0.06433452
6.6485405,-4.276485,0.41429147,33.0,9,-0.06433222
2.4288764,-1.5623057,-0.5613601,46.0,2,-0.064329915
8.928682,-5.7453246,0.9289059,35.0,10,-0.064327605
2.6941352,-1.734256,-0.50747347,40.0,3,-0.0643253
15.3228855,-9.867356,2.237765,2.0,11,-0.064323
2.9837966,-1.9221886,-0.4358048,40.0,4,-0.0643207
36.65578,-23.623035,6.906895,18.0,12,-0.06431839
3.3360744,-2.149953,-0.34722847,46.0,5,-0.06431609
3.8906507,-2.5092757,-0.24262951,38.0,6,-0.06431148
40.82925,-26.342922,11.217859,17.0,14,-0.06430917
4.437198,-2.8639655,-0.092183605,37.0,7,-0.06430687
31.03541,-20.03931,9.898794,18.0,15,-0.06430457
2.0400417,-1.3207724,-0.65118873,51.0,0,-0.06428383
5.238333,-3.392722,0.10893792,51.0,8,-0.06428153
2.2176862,-1.4368826,-0.61006725,49.0,1,-0.06427922
6.610109,-4.2844586,0.41282606,33.0,9,-0.06427692
2.438235,-1.5803851,-0.56479466,43.0,2,-0.06427462
8.962068,-5.811143,0.9344838,30.0,10,-0.064272314
2.6582346,-1.7242994,-0.50184184,40.0,3,-0.064270005
15.9694195,-10.362738,2.337454,16.0,11,-0.0642677
3.0003788,-1.9477242,-0.43921715,40.0,4,-0.0642654
36.810005,-23.904697,6.951636,9.0,12,-0.0642631
3.361968,-2.1832879,-0.3507147,42.0,5,-0.06426079
3.863447,-2.5108695,-0.24147813,32.0,6,-0.064256184
41.820255,-27.189533,11.516145,12.0,14,-0.06425388
4.4439373,-2.8903399,-0.09253266,39.0,7,-0.06425158
31.004133,-20.172808,9.911217,18.0,15,-0.06424927
2.0354187,-1.3278855,-0.65118873,46.0,0,-0.064228535
5.234832,-3.416451,0.10911245,49.0,8,-0.06422623
2.211025,-1.4435496,-0.60961735,52.0,1,-0.06422393
6.574124,-4.2921605,0.41146535,34.0,9,-0.06422162
2.4343476,-1.5899601,-0.56517625,38.0,2,-0.06421932
8.938392,-5.8402123,0.9341352,44.0,10,-0.064217016
2.6819625,-1.753022,-0.50747347,43.0,3,-0.064214714
16.297003,-10.656337,2.390833,16.0,11,-0.064212404
2.9822736,-1.9500588,-0.43751097,45.0,4,-0.0642101
37.262833,-24.374826,7.052379,9.0,12,-0.0642078
3.3709986,-2.2059195,-0.35245782,42.0,5,-0.0642055
3.8429627,-2.5166805,-0.24074543,36.0,6,-0.064200886
41.777138,-27.359024,11.529192,6.0,14,-0.06419858
4.4443645,-2.9116354,-0.092742085,37.0,7,-0.06419628
31.01139,-20.324219,9.935028,19.0,15,-0.06419398
2.0326188,-1.3356887,-0.6517064,44.0,0,-0.06417324
5.2819586,-3.4722376,0.11033412,51.0,8,-0.064170934
2.212739,-1.4551568,-0.611417,51.0,1,-0.06416863
6.5448356,-4.3040605,0.41052327,33.0,9,-0.06416633
2.4356222,-1.6023399,-0.5667027,38.0,2,-0.06416403
8.910655,-5.864343,0.93326366,33.0,10,-0.06416172
2.6810842,-1.765165,-0.50841206,50.0,3,-0.064159416
16.286444,-10.7267,2.394489,16.0,11,-0.06415711
2.982422,-1.9643052,-0.43848595,43.0,4,-0.06415481
3.3536837,-2.2105072,-0.35141194,42.0,5,-0.0641502
3.821258,-2.5206125,-0.23990804,33.0,6,-0.064145595
41.437294,-27.33324,11.460357,12.0,14,-0.064143285
4.4547133,-2.939574,-0.09316095,36.0,7,-0.06414098
31.978884,-21.11022,10.267352,10.0,15,-0.06413868
2.0346217,-1.3466868,-0.6537769,43.0,0,-0.064117946
5.318767,-3.5217497,0.11134635,51.0,8,-0.06411564
2.222523,-1.4721718,-0.61546606,50.0,1,-0.064113334
6.574724,-4.356667,0.41334942,34.0,9,-0.06411103
2.420476,-1.6039013,-0.5644131,45.0,2,-0.06410873
8.94596,-5.9301877,0.9390159,35.0,10,-0.06410643
2.68674,-1.781688,-0.5106022,46.0,3,-0.06410412
16.361616,-10.854174,2.4108195,18.0,11,-0.064101815
2.9805088,-1.9779968,-0.43921715,46.0,4,-0.06409951
3.3745527,-2.2403498,-0.3543752,37.0,5,-0.0640949
3.8511405,-2.5586913,-0.2423155,26.0,6,-0.0640903
41.341633,-27.477718,11.460357,12.0,14,-0.064087994
4.4327693,-2.9473555,-0.092916615,34.0,7,-0.064085685
31.843878,-21.181063,10.247682,10.0,15,-0.06408338
2.0411594,-1.3612841,-0.6574004,45.0,0,-0.06406265
5.3297296,-3.5558321,0.111835025,56.0,8,-0.064060345
2.2222333,-1.4831663,-0.6168158,48.0,1,-0.06405804
6.6475124,-4.4383698,0.41889706,32.0,9,-0.06405573
2.4409869,-1.6297829,-0.570519,46.0,2,-0.06405343
8.925205,-5.961378,0.9390159,38.0,10,-0.06405113
2.683789,-1.7932507,-0.5112279,47.0,3,-0.06404883
16.163544,-10.8042145,2.387177,12.0,11,-0.06404652
2.9768867,-1.9905953,-0.43970463,40.0,4,-0.064044215
41.11131,-27.500843,7.833926,12.0,12,-0.06404191
3.3865845,-2.265409,-0.35646698,40.0,5,-0.06403961
41.247463,-27.60235,9.647304,29.0,13,-0.0640373
3.877039,-2.5954516,-0.24451362,34.0,6,-0.064035
41.439766,-27.751978,11.514344,19.0,14,-0.064032696
4.4423895,-2.9761665,-0.093335465,34.0,7,-0.064030394
31.111788,-20.851126,10.03545,9.0,15,-0.064028084
2.0412054,-1.371633,-0.6589533,47.0,0,-0.06400735
5.3355403,-3.5866864,0.112218976,60.0,8,-0.06400505
2.2186599,-1.4920018,-0.6172657,56.0,1,-0.064002745
6.683351,-4.4961066,0.42214185,31.0,9,-0.06400044
2.438541,-1.6404854,-0.57128215,45.0,2,-0.06399813
8.8828535,-5.9780354,0.9367499,33.0,10,-0.06399583
2.6709588,-1.7981952,-0.50997645,47.0,3,-0.06399353
15.577449,-10.491305,2.306012,12.0,11,-0.063991226
2.9765053,-2.0054111,-0.44067958,42.0,4,-0.06398892
41.119892,-27.71484,7.8539495,12.0,12,-0.063986614
3.373303,-2.2744648,-0.35594404,48.0,5,-0.06398431
41.242023,-27.807623,9.6686735,29.0,13,-0.06398201
3.8696113,-2.6100857,-0.24461828,31.0,6,-0.0639797
41.18272,-27.788551,11.469805,12.0,14,-0.0639774
4.431974,-2.9916556,-0.093335465,31.0,7,-0.063975096
30.725016,-20.747702,9.933992,9.0,15,-0.06397279
2.0377638,-1.3801887,-0.659471,45.0,0,-0.06395206
5.3064313,-3.5940754,0.111869924,51.0,8,-0.06394975
2.2085981,-1.4964579,-0.615916,51.0,1,-0.06394745
6.6709228,-4.5216503,0.4223512,35.0,9,-0.063945144
2.4325118,-1.6494122,-0.57128215,44.0,2,-0.06394284
8.918594,-6.0496993,0.9428508,30.0,10,-0.06394053
2.6676192,-1.8101908,-0.5106022,46.0,3,-0.06393823
15.581798,-10.5734825,2.3121052,4.0,11,-0.06393593
2.969487,-2.015789,-0.44067958,42.0,4,-0.063933626
41.153637,-27.946987,7.878979,12.0,12,-0.063931316
3.391712,-2.3041396,-0.35873303,48.0,5,-0.063929014
40.967705,-27.841625,9.628222,29.0,13,-0.06392671
3.8418503,-2.6118991,-0.2434669,30.0,6,-0.06392441
41.912064,-28.5048,11.701954,6.0,14,-0.06392211
4.419851,-3.005983,-0.093300566,31.0,7,-0.0639198
30.55338,-20.787449,9.901899,18.0,15,-0.063917495
2.0520823,-1.4003602,-0.6656826,45.0,0,-0.06389676
5.3246026,-3.634922,0.11253312,49.0,8,-0.06389446
2.2095356,-1.5089389,-0.6177156,47.0,1,-0.06389215
6.718622,-4.590009,0.42643344,32.0,9,-0.063889846
2.4526765,-1.6756127,-0.57738805,55.0,2,-0.063887544
8.956639,-6.121265,0.949126,24.0,10,-0.06388524
2.6775908,-1.8306404,-0.5137308,41.0,3,-0.06388293
16.548986,-11.318604,2.461761,18.0,11,-0.06388063
2.9653552,-2.028901,-0.44116706,42.0,4,-0.06387833
41.898586,-28.677818,8.041671,13.0,12,-0.063876025
3.4115987,-2.3350956,-0.3616963,41.0,5,-0.06387372
40.669407,-27.846922,9.580902,29.0,13,-0.06387141
3.8491874,-2.6365807,-0.24451362,35.0,6,-0.06386911
41.30754,-28.305044,11.560684,6.0,14,-0.06386681
4.4599347,-3.057212,-0.09438262,34.0,7,-0.06386451
30.438747,-20.873072,9.889477,18.0,15,-0.0638622
2.043998,-1.405326,-0.66464734,46.0,0,-0.06384146
5.3102336,-3.6523526,0.11249821,49.0,8,-0.06383916
2.210677,-1.5210608,-0.61951524,43.0,1,-0.06383686
6.6992683,-4.611169,0.42622405,32.0,9,-0.063834555
2.433875,-1.675259,-0.5743351,54.0,2,-0.063832246
8.953269,-6.1649218,0.9510435,33.0,10,-0.06382994
2.6972132,-1.8579049,-0.5187368,45.0,3,-0.06382764
16.458704,-11.341385,2.454205,16.0,11,-0.06382534
2.9500833,-2.0336063,-0.43994835,45.0,4,-0.06382303
41.19653,-28.408974,7.92591,12.0,12,-0.06382073
3.4034266,-2.3469903,-0.3616963,41.0,5,-0.063818425
40.56872,-27.986486,9.580139,29.0,13,-0.06381612
3.8498232,-2.656807,-0.24514163,33.0,6,-0.06381381
30.636944,-21.150799,8.59493,14.0,14,-0.06381151
4.4541717,-3.0761707,-0.094487324,28.0,7,-0.06380921
30.400667,-21.003355,9.900864,9.0,15,-0.06380691
2.0422559,-1.4146525,-0.6656826,46.0,0,-0.06378617
5.338544,-3.69934,0.113370836,54.0,8,-0.06378386
2.2293773,-1.5454216,-0.62626374,43.0,1,-0.06378156
6.7274446,-4.665255,0.42905018,35.0,9,-0.06377926
2.4441454,-1.694932,-0.5781513,52.0,2,-0.063776955
8.889132,-6.16661,0.9465113,33.0,10,-0.063774645
2.6842198,-1.8628036,-0.51748526,43.0,3,-0.06377234
16.435322,-11.410088,2.4566424,22.0,11,-0.06377004
2.983728,-2.0722005,-0.44604182,36.0,4,-0.06376774
3.3821237,-2.3497622,-0.36030185,37.0,5,-0.06376313
40.78031,-28.34305,9.653409,29.0,13,-0.063760825
3.853645,-2.6793504,-0.24597903,34.0,6,-0.06375852
41.15852,-28.62723,11.574632,13.0,14,-0.06375621
4.440124,-3.0894153,-0.09441752,33.0,7,-0.06375391
30.967737,-21.555216,10.109989,19.0,15,-0.06375161
2.0373054,-1.4217726,-0.6656826,46.0,0,-0.06373087
5.3518324,-3.7362678,0.11392931,56.0,8,-0.06372857
2.2031994,-1.5386887,-0.62041503,37.0,1,-0.06372626
6.7635107,-4.725314,0.4323997,36.0,9,-0.06372396
2.4317765,-1.698956,-0.5766248,50.0,2,-0.06372166
8.910011,-6.227277,0.9510435,33.0,10,-0.063719355
2.6679878,-1.8653708,-0.5156081,47.0,3,-0.063717045
16.45558,-11.509484,2.4656608,16.0,11,-0.06371474
2.992741,-2.0939834,-0.4484792,46.0,4,-0.06371244
44.340675,-31.036139,8.572297,15.0,12,-0.06371014
3.3461525,-2.3421307,-0.35733855,45.0,5,-0.06370783
41.539906,-29.086555,9.857193,30.0,13,-0.06370553
3.8917086,-2.726016,-0.24901451,37.0,6,-0.063703224
42.133995,-29.524467,11.877866,14.0,14,-0.06370092
4.462062,-3.1278522,-0.09511562,36.0,7,-0.06369862
30.955574,-21.707548,10.130695,9.0,15,-0.06369631
2.0194395,-1.4203392,-0.6615415,46.0,0,-0.06367564
5.3806243,-3.7857769,0.114836834,54.0,8,-0.06367334
2.2071066,-1.5534834,-0.62311447,30.0,1,-0.06367104
6.781275,-4.7730355,0.43459785,31.0,9,-0.06366873
2.430349,-1.7112483,-0.57776964,56.0,2,-0.063666426
8.935993,-6.294311,0.9562728,33.0,10,-0.06366412
2.6675918,-1.8796881,-0.51685953,45.0,3,-0.06366182
16.421398,-11.5754385,2.4668794,14.0,11,-0.06365951
2.972068,-2.0957866,-0.44652933,42.0,4,-0.06365721
44.293407,-31.233986,8.584187,15.0,12,-0.06365491
3.3261487,-2.34634,-0.35611835,35.0,5,-0.063652605
3.8588476,-2.7241352,-0.24754909,30.0,6,-0.06364799
41.976154,-29.643847,11.863918,21.0,14,-0.06364569
4.4756184,-3.160712,-0.09563919,33.0,7,-0.06364339
40.10989,-28.33637,13.158878,20.0,15,-0.06364108
2.0255032,-1.435198,-0.665165,44.0,0,-0.063620344
5.3859878,-3.8163152,0.115220785,58.0,8,-0.06361804
2.2114818,-1.5675554,-0.62581384,37.0,1,-0.06361574
6.7710886,-4.801298,0.4350165,33.0,9,-0.06361344
2.4195569,-1.7163136,-0.5766248,52.0,2,-0.06361113
8.964338,-6.36121,0.9616764,41.0,10,-0.063608825
2.6645658,-1.8908101,-0.51748526,49.0,3,-0.06360652
16.776268,-11.909057,2.526108,19.0,11,-0.06360422
2.9812868,-2.1171243,-0.4489667,48.0,4,-0.06360191
43.089054,-30.610477,8.371435,14.0,12,-0.06359961
3.3211868,-2.360244,-0.35646698,33.0,5,-0.06359731
41.495865,-29.489569,9.895354,31.0,13,-0.063595004
3.8497927,-2.7369165,-0.24754909,27.0,6,-0.063592695
41.890327,-29.791916,11.867518,21.0,14,-0.06359039
4.4580398,-3.1716785,-0.09549957,33.0,7,-0.06358809
40.02647,-28.48741,13.164055,20.0,15,-0.06358579
2.022305,-1.4430289,-0.6656826,45.0,0,-0.06356505
5.3856544,-3.8443873,0.11550003,56.0,8,-0.06356274
2.2250276,-1.5888551,-0.63121265,45.0,1,-0.06356044
6.7542877,-4.8249044,0.4350165,32.0,9,-0.06355814
2.413852,-1.7243278,-0.5766248,52.0,2,-0.06355584
8.845934,-6.321398,0.9512178,27.0,10,-0.06355353
2.6772337,-1.9138851,-0.5212397,51.0,3,-0.063551225
16.80887,-12.020662,2.5373201,17.0,11,-0.06354892
2.991638,-2.140223,-0.45164782,49.0,4,-0.06354662
3.2890382,-2.353852,-0.35385233,41.0,5,-0.06354201
3.7801363,-2.70731,-0.24367623,43.0,6,-0.063537404
41.946075,-30.052591,11.912958,21.0,14,-0.0635351
4.490826,-3.2186737,-0.09644201,39.0,7,-0.06353279
2.0094125,-1.4444412,-0.6630944,47.0,0,-0.063509755
5.3998027,-3.8830104,0.11609341,54.0,8,-0.06350745
2.2257955,-1.6011641,-0.6330123,48.0,1,-0.06350514
6.6968765,-4.819286,0.4323997,31.0,9,-0.06350284
2.4205666,-1.741917,-0.57967776,48.0,2,-0.06350054
9.014616,-6.489595,0.9717865,30.0,10,-0.063498236
2.6689334,-1.9220644,-0.52092683,54.0,3,-0.06349593
16.871498,-12.154685,2.553163,14.0,11,-0.063493624
2.9728756,-2.1425283,-0.44994166,46.0,4,-0.06349132
36.929554,-26.624636,7.210691,10.0,12,-0.06348902
3.334135,-2.4037693,-0.3596046,36.0,5,-0.06348672
3.8289723,-2.762558,-0.24744442,30.0,6,-0.063482106
41.940468,-30.270678,11.941302,21.0,14,-0.0634798
4.468215,-3.2261355,-0.096197665,35.0,7,-0.0634775
40.10851,-28.969757,13.25723,21.0,15,-0.06347519
2.0074878,-1.4537128,-0.66412973,48.0,0,-0.06345446
5.3262963,-3.8584297,0.114801936,51.0,8,-0.063452154
2.209147,-1.6009195,-0.62986296,47.0,1,-0.06344985
6.7212887,-4.8707676,0.4350165,30.0,9,-0.06344754
2.4335456,-1.7641835,-0.5842571,50.0,2,-0.06344524
8.930617,-6.476574,0.96516263,27.0,10,-0.06344294
2.6622078,-1.9313691,-0.52092683,51.0,3,-0.063440636
16.449816,-11.938335,2.4956405,16.0,11,-0.06343833
2.9685915,-2.1552248,-0.4504291,50.0,4,-0.063436024
3.3353963,-2.4224179,-0.36065045,37.0,5,-0.06343142
3.851618,-2.7993913,-0.24953786,39.0,6,-0.06342681
41.88656,-30.454708,11.956148,21.0,14,-0.063424505
4.5141,-3.2820935,-0.09741934,32.0,7,-0.0634222
40.47154,-29.43668,13.409415,22.0,15,-0.0634199
2.0102046,-1.4664041,-0.6667179,45.0,0,-0.06339916
5.350629,-3.9031768,0.11560474,54.0,8,-0.063396856
2.1865103,-1.5956002,-0.62491405,48.0,1,-0.063394554
6.8203926,-4.978988,0.4425529,32.0,9,-0.06339225
2.4257872,-1.7715099,-0.58387554,47.0,2,-0.06338995
8.962656,-6.5476685,0.97108924,27.0,10,-0.06338764
2.6510036,-1.9366907,-0.51998824,48.0,3,-0.06338534
16.39411,-11.981106,2.4932032,2.0,11,-0.063383035
2.9678383,-2.1697435,-0.4514041,42.0,4,-0.06338073
42.790462,-31.294956,8.396464,14.0,12,-0.06337842
3.3172724,-2.4269874,-0.3596046,41.0,5,-0.06337612
3.8310318,-2.8038914,-0.24880517,27.0,6,-0.06337152
36.418888,-26.664356,10.420632,5.0,14,-0.06336921
4.467124,-3.2718356,-0.09665143,30.0,7,-0.063366905
40.602287,-29.749043,13.487061,22.0,15,-0.0633646
2.0115585,-1.4776367,-0.66878843,45.0,0,-0.06334387
5.3466406,-3.9289343,0.115814164,49.0,8,-0.063341565
2.187208,-1.6078396,-0.62671363,50.0,1,-0.063339256
6.8351526,-5.0264306,0.44464633,33.0,9,-0.06333695
2.404083,-1.7679132,-0.5800594,36.0,2,-0.06333465
9.064471,-6.668264,0.98451126,33.0,10,-0.06333235
2.647409,-1.9482741,-0.52061397,51.0,3,-0.06333004
17.135506,-12.614929,2.6126354,27.0,11,-0.06332774
2.9570496,-2.177736,-0.45091662,42.0,4,-0.063325435
43.794228,-32.2643,8.615473,15.0,12,-0.06332313
3.3344421,-2.4574642,-0.36239356,35.0,5,-0.06332082
3.861411,-2.8468773,-0.25142196,41.0,6,-0.06331622
41.544983,-30.640799,11.917907,21.0,14,-0.06331392
4.4363666,-3.2731624,-0.09623257,30.0,7,-0.06331161
40.554157,-29.931889,13.505696,22.0,15,-0.063309304
2.0107877,-1.4884475,-0.6703414,44.0,0,-0.06328857
5.342537,-3.954712,0.1160236,49.0,8,-0.06328627
2.1847146,-1.6177843,-0.6276135,50.0,1,-0.063283965
6.830404,-5.0597696,0.44548368,47.0,9,-0.063281655
2.380236,-1.7638551,-0.5758616,41.0,2,-0.06327935
8.998355,-6.670592,0.97997916,22.0,10,-0.06327705
2.6577039,-1.9709076,-0.52405554,50.0,3,-0.06327475
17.099342,-12.680578,2.613854,18.0,11,-0.06327244
2.9350812,-2.1774,-0.44872296,45.0,4,-0.06327014
45.581703,-33.827274,8.99029,17.0,12,-0.063267834
3.3706362,-2.5023425,-0.36727428,40.0,5,-0.06326553
3.9102697,-2.905082,-0.25529483,38.0,6,-0.06326092
40.92564,-30.41623,11.772139,20.0,14,-0.06325862
4.412074,-3.2790854,-0.09595333,31.0,7,-0.063256316
41.63077,-30.951574,13.900136,25.0,15,-0.06325401
1.9823489,-1.4781357,-0.6625768,45.0,0,-0.06323327
5.318389,-3.9670935,0.115814164,49.0,8,-0.06323097
2.1897032,-1.6339387,-0.63076276,59.0,1,-0.06322867
6.835822,-5.1026917,0.4470538,37.0,9,-0.063226365
2.375638,-1.7733271,-0.5762432,37.0,2,-0.063224055
9.15062,-6.833092,0.99915344,33.0,10,-0.06322175
2.6523905,-1.9813551,-0.5243684,48.0,3,-0.06321945
17.191093,-12.846547,2.6350594,9.0,11,-0.06321715
2.9318507,-2.1917088,-0.4494542,27.0,4,-0.06321484
3.3491166,-2.5045478,-0.36587983,35.0,5,-0.063210234
41.438957,-31.0003,10.05945,31.0,13,-0.06320793
3.8825161,-2.9055498,-0.25414345,39.0,6,-0.06320563
46.837734,-35.06461,13.507861,10.0,14,-0.06320332
4.4768543,-3.3527722,-0.097628765,34.0,7,-0.06320102
1.9895346,-1.4943278,-0.6667179,46.0,0,-0.06317798
5.3156996,-3.9940422,0.1160585,49.0,8,-0.06317567
2.1871018,-1.6439139,-0.63166255,56.0,1,-0.06317337
6.924923,-5.206943,0.4540668,33.0,9,-0.06317107
2.3804176,-1.789868,-0.5789145,39.0,2,-0.063168764
9.199956,-6.920085,1.0071718,52.0,10,-0.063166454
2.6328306,-1.9810997,-0.5218654,49.0,3,-0.06316415
17.171522,-12.925577,2.638959,4.0,11,-0.06316185
2.8892953,-2.1756594,-0.44409195,34.0,4,-0.06315955
43.763817,-32.966427,8.678046,15.0,12,-0.063157246
3.357859,-2.5294094,-0.36779723,48.0,5,-0.063154936
3.891488,-2.9335115,-0.2553995,45.0,6,-0.06315033
41.930588,-31.619919,12.124412,15.0,14,-0.06314803
4.460335,-3.3647661,-0.09752405,37.0,7,-0.06314572
43.141468,-32.55667,14.481961,29.0,15,-0.06314342
1.985847,-1.5024291,-0.6672355,48.0,0,-0.06312268
5.332021,-4.0355024,0.11672169,54.0,8,-0.06312038
2.1627061,-1.6374227,-0.62626374,65.0,1,-0.06311807
6.898063,-5.2226443,0.4534388,32.0,9,-0.06311577
2.4070208,-1.8230586,-0.5869285,51.0,2,-0.063113466
9.151924,-6.934108,1.0045571,33.0,10,-0.06311116
2.6258993,-1.9902781,-0.5218654,51.0,3,-0.06310886
17.684677,-13.408811,2.7249987,17.0,11,-0.06310655
2.9022439,-2.2013268,-0.44726053,43.0,4,-0.06310425
45.970978,-34.868587,9.13859,17.0,12,-0.06310195
3.3521833,-2.5435233,-0.36814582,48.0,5,-0.063099645
41.609344,-31.583214,10.154092,32.0,13,-0.063097335
3.8828158,-2.9482858,-0.25550416,49.0,6,-0.06309503
43.28953,-32.882362,12.550469,8.0,14,-0.06309273
4.485778,-3.4073586,-0.09832686,39.0,7,-0.06309043
42.91945,-32.613064,14.443657,29.0,15,-0.06308812
1.9744443,-1.504668,-0.665165,49.0,0,-0.063067384
5.3520103,-4.078615,0.1174547,57.0,8,-0.06306508
2.166563,-1.6516742,-0.6289632,65.0,1,-0.06306278
7.008429,-5.344794,0.4619172,35.0,9,-0.06306048
2.4022033,-1.8326402,-0.5873101,54.0,2,-0.06305817
9.075397,-6.926123,0.9988048,19.0,10,-0.063055865
2.620855,-2.0001733,-0.5221783,54.0,3,-0.06305356
17.363995,-13.256578,2.6823444,19.0,11,-0.06305126
2.8854623,-2.2037096,-0.4457981,45.0,4,-0.06304895
44.125473,-33.71207,8.79506,32.0,12,-0.06304665
3.3654466,-2.5721474,-0.37058622,43.0,5,-0.06304435
41.84755,-31.983295,10.238048,32.0,13,-0.063042045
3.8777769,-2.9647841,-0.25581816,50.0,6,-0.063039735
41.15869,-31.479582,11.962897,21.0,14,-0.06303743
4.4405046,-3.3974788,-0.09759386,39.0,7,-0.06303513
1.967911,-1.5100312,-0.66464734,50.0,0,-0.06301209
5.3520164,-4.108231,0.11776884,49.0,8,-0.06300978
2.165421,-1.6627874,-0.63031286,58.0,1,-0.06300748
7.024576,-5.3959923,0.46422,50.0,9,-0.06300518
2.3867714,-1.8334203,-0.5850204,54.0,2,-0.06300288
8.941792,-6.8712015,0.986603,24.0,10,-0.06300057
2.6310847,-2.0225525,-0.52561986,56.0,3,-0.062998265
17.890411,-13.757585,2.7710652,20.0,11,-0.06299596
2.8997803,-2.2307134,-0.44921044,45.0,4,-0.06299366
3.3453965,-2.575372,-0.36936605,41.0,5,-0.06298905
41.81344,-32.189056,10.25713,32.0,13,-0.06298675
3.8832285,-2.9904888,-0.2568649,50.0,6,-0.062984444
41.097958,-31.661116,11.977294,7.0,14,-0.062982135
4.488807,-3.4593432,-0.09892024,39.0,7,-0.06297983
1.9608351,-1.5160524,-0.66412973,48.0,0,-0.062956795
5.358209,-4.142789,0.1182226,57.0,8,-0.06295449
2.1657698,-1.6751047,-0.6321125,58.0,1,-0.06295218
7.0720425,-5.4718127,0.4686162,46.0,9,-0.06294988
2.3909032,-1.8505676,-0.5876917,57.0,2,-0.06294758
8.989014,-6.9600387,0.99462134,22.0,10,-0.06294528
2.629901,-2.037021,-0.5268714,57.0,3,-0.06294297
17.96469,-13.914763,2.790077,28.0,11,-0.062940665
2.8904066,-2.2396061,-0.4489667,40.0,4,-0.06293836
3.3348112,-2.585813,-0.3691917,47.0,5,-0.06293375
41.571075,-32.24583,10.226599,32.0,13,-0.06293145
3.8785539,-3.0095987,-0.2572836,46.0,6,-0.062929146
40.9801,-31.81034,11.976845,29.0,14,-0.062926844
4.4451113,-3.4504678,-0.098222144,34.0,7,-0.06292454
42.651867,-33.119957,14.469538,29.0,15,-0.06292223
1.9555311,-1.5228877,-0.66412973,48.0,0,-0.0629015
5.366652,-4.180834,0.11874618,54.0,8,-0.062899195
2.1580784,-1.6818337,-0.63166255,54.0,1,-0.06289689
7.0976186,-5.5333076,0.47165167,51.0,9,-0.06289458
2.3813324,-1.8564881,-0.5869285,57.0,2,-0.06289228
9.280454,-7.2376513,1.0296578,24.0,10,-0.06288998
2.614987,-2.0401132,-0.525307,59.0,3,-0.062887676
17.924522,-13.989063,2.791783,21.0,11,-0.06288537
2.8555784,-2.2294178,-0.44482315,43.0,4,-0.062883064
44.27159,-34.576313,8.897055,16.0,12,-0.06288076
3.3320465,-2.602343,-0.369889,53.0,5,-0.06287846
41.18598,-32.178017,10.159435,32.0,13,-0.06287616
3.8664508,-3.0218894,-0.2571789,39.0,6,-0.06287385
43.228424,-33.798054,12.668344,8.0,14,-0.062871546
4.4859896,-3.5086231,-0.0994089,39.0,7,-0.06286924
1.9593235,-1.5368581,-0.6672355,43.0,0,-0.0628462
5.37877,-4.2205267,0.119339556,52.0,8,-0.0628439
2.1353326,-1.6761208,-0.62671363,51.0,1,-0.062841594
7.0578403,-5.542014,0.47029093,41.0,9,-0.06283929
2.384102,-1.8720639,-0.5892182,61.0,2,-0.06283699
9.241032,-7.258925,1.0280892,35.0,10,-0.06283468
2.609403,-2.0504494,-0.52561986,58.0,3,-0.06283238
17.928646,-14.093258,2.8000703,26.0,11,-0.062830076
2.8711855,-2.2577777,-0.4484792,42.0,4,-0.06282777
3.3198102,-2.6114948,-0.36954033,43.0,5,-0.06282316
3.8417547,-3.0242486,-0.25623688,33.0,6,-0.06281856
4.4784274,-3.5279732,-0.09951362,39.0,7,-0.062813945
42.604958,-33.57498,14.53476,30.0,15,-0.06281164
1.9584944,-1.5472807,-0.66878843,50.0,0,-0.06279091
5.4267597,-4.288873,0.12073575,52.0,8,-0.062788606
2.1416986,-1.6932329,-0.63031286,52.0,1,-0.062786296
7.061358,-5.5827293,0.47175637,42.0,9,-0.062783994
2.3667738,-1.8718497,-0.5865469,55.0,2,-0.06278169
9.178137,-7.261469,1.0239056,33.0,10,-0.06277939
2.6053271,-2.0619972,-0.5262456,58.0,3,-0.06277708
17.899572,-14.171773,2.8032389,28.0,11,-0.06277478
2.8788486,-2.2801113,-0.45091662,46.0,4,-0.062772475
43.106102,-34.14098,8.709333,16.0,12,-0.06277017
3.330975,-2.639152,-0.37180638,55.0,5,-0.06276786
3.8906457,-3.0847933,-0.2602144,31.0,6,-0.06276326
4.4714036,-3.5465326,-0.09961834,34.0,7,-0.06275865
1.9440113,-1.5468905,-0.6656826,46.0,0,-0.06273561
5.4688387,-4.3516693,0.12199232,52.0,8,-0.06273331
2.1467447,-1.7088215,-0.6334622,46.0,1,-0.062731005
7.0340157,-5.6011243,0.471233,43.0,9,-0.062728696
2.3540828,-1.8752071,-0.5850204,55.0,2,-0.06272639
9.146502,-7.288497,1.0232084,35.0,10,-0.06272409
2.6046548,-2.0755498,-0.5274971,58.0,3,-0.06272179
17.93475,-14.296634,2.816157,26.0,11,-0.06271948
2.894552,-2.3082101,-0.4545727,45.0,4,-0.06271718
3.3264146,-2.6544912,-0.37232932,57.0,5,-0.06271257
42.012566,-33.526184,10.447938,33.0,13,-0.06271026
3.936587,-3.142536,-0.2639826,43.0,6,-0.06270796
41.894398,-33.45583,12.377707,15.0,14,-0.06270566
4.4621215,-3.5646157,-0.09968815,39.0,7,-0.062703356
42.287907,-33.79426,14.504738,30.0,15,-0.06270105
1.929825,-1.5460815,-0.6625768,46.0,0,-0.06268031
5.464538,-4.3794866,0.122236654,57.0,8,-0.06267801
2.131644,-1.7089907,-0.63076276,37.0,1,-0.06267571
7.092324,-5.6881223,0.47646657,45.0,9,-0.062673405
2.3539777,-1.8879162,-0.5865469,51.0,2,-0.062671095
9.19843,-7.379881,1.0317496,35.0,10,-0.06266879
2.597394,-2.0846288,-0.5274971,56.0,3,-0.06266649
17.991543,-14.4449005,2.832975,28.0,11,-0.06266419
2.881834,-2.314571,-0.45384148,42.0,4,-0.06266188
3.3175938,-2.6655073,-0.37232932,50.0,5,-0.062657274
41.932003,-33.70215,10.457096,33.0,13,-0.06265497
3.872671,-3.1137073,-0.26042375,34.0,6,-0.06265266
42.489544,-34.17468,12.588711,16.0,14,-0.06265036
4.448093,-3.5789158,-0.09965324,39.0,7,-0.06264806
35.70149,-28.735523,12.279929,16.0,15,-0.062645756
1.9214097,-1.550382,-0.6615415,46.0,0,-0.06262502
5.474114,-4.4186306,0.122795135,49.0,8,-0.06262271
2.148408,-1.7347852,-0.63751125,45.0,1,-0.06262041
7.1190367,-5.7504954,0.47960675,45.0,9,-0.06261811
2.3565369,-1.9035237,-0.5888366,54.0,2,-0.062615804
9.208256,-7.4407454,1.0357589,33.0,10,-0.062613495
2.5916374,-2.0949247,-0.5278099,52.0,3,-0.06261119
18.076847,-14.617457,2.854424,30.0,11,-0.06260889
2.8860843,-2.3346035,-0.45579138,40.0,4,-0.06260659
3.3485384,-2.709658,-0.37686142,47.0,5,-0.062601976
41.676773,-33.73714,10.422751,33.0,13,-0.062599674
3.902135,-3.1598866,-0.2631452,36.0,6,-0.06259737
42.43662,-34.37676,12.608507,16.0,14,-0.06259507
4.421591,-3.58309,-0.0993391,34.0,7,-0.06259276
35.50192,-28.779676,12.245765,16.0,15,-0.06259046
1.9294788,-1.5680449,-0.6662002,44.0,0,-0.06256972
5.5098605,-4.4793396,0.12394699,61.0,8,-0.06256742
2.1105897,-1.7164533,-0.6280633,53.0,1,-0.06256511
7.0787797,-5.758924,0.478246,48.0,9,-0.06256281
2.3559697,-1.9166934,-0.590363,55.0,2,-0.062560506
9.19459,-7.4829044,1.0371534,22.0,10,-0.062558204
2.6042237,-2.1201713,-0.5318772,45.0,3,-0.062555894
18.08266,-14.726848,2.8634422,24.0,11,-0.06255359
2.884073,-2.349679,-0.45676634,48.0,4,-0.06255129
43.638897,-35.565655,8.916452,16.0,12,-0.06254899
3.3483262,-2.7288826,-0.3779073,48.0,5,-0.062546685
41.73526,-34.02632,10.467019,33.0,13,-0.062544376
3.8941762,-3.1760128,-0.26335454,46.0,6,-0.06254207
42.763306,-34.88933,12.741677,17.0,14,-0.06253977
4.4539843,-3.6351702,-0.10035134,34.0,7,-0.06253747
1.9239935,-1.5747706,-0.6662002,42.0,0,-0.062514424
5.5081167,-4.5099463,0.12426113,52.0,8,-0.06251212
2.119661,-1.7361585,-0.63256234,50.0,1,-0.06250982
7.0601783,-5.784865,0.47835067,43.0,9,-0.06250752
2.337116,-1.9149516,-0.5873101,55.0,2,-0.06250521
9.185363,-7.5288477,1.0390707,27.0,10,-0.062502906
2.578477,-2.114219,-0.52812284,47.0,3,-0.0625006
18.241417,-14.962353,2.8968344,19.0,11,-0.062498298
2.8789227,-2.3622503,-0.4572538,46.0,4,-0.062495995
43.63969,-35.82054,8.942108,16.0,12,-0.06249369
3.3357003,-2.7380254,-0.37755868,48.0,5,-0.062491387
42.126045,-34.59041,10.5952425,34.0,13,-0.06248908
3.9170206,-3.2174764,-0.26565734,40.0,6,-0.06248678
42.541885,-34.956738,12.711984,25.0,14,-0.062484473
4.452081,-3.659584,-0.100595675,39.0,7,-0.06248217
35.449356,-29.149523,12.297529,16.0,15,-0.062479865
1.9244474,-1.5863922,-0.66827077,44.0,0,-0.06245913
5.5571375,-4.5825796,0.12572713,54.0,8,-0.062456828
2.125614,-1.7534676,-0.63616157,56.0,1,-0.06245452
7.038402,-5.808203,0.478246,42.0,9,-0.06245222
2.327389,-1.920599,-0.5865469,51.0,2,-0.062449913
9.285019,-7.6648717,1.0533643,27.0,10,-0.06244761
2.58022,-2.1307538,-0.53000003,41.0,3,-0.062445305
18.323755,-15.137193,2.9182835,23.0,11,-0.062443003
2.8844314,-2.3836665,-0.45944747,49.0,4,-0.062440697
3.3445497,-2.764886,-0.3796504,50.0,5,-0.06243609
3.9180763,-3.2413146,-0.2664947,43.0,6,-0.06243148
42.17639,-34.903748,12.639099,25.0,14,-0.06242918
4.4577637,-3.6904042,-0.101014525,32.0,7,-0.062426873
35.335484,-29.263227,12.293387,16.0,15,-0.06242457
1.9099802,-1.5856961,-0.665165,47.0,0,-0.062403835
5.5595675,-4.617281,0.12614599,57.0,8,-0.06240153
2.1239772,-1.7646126,-0.63751125,52.0,1,-0.062399227
7.076454,-5.881247,0.48222357,38.0,9,-0.06239692
2.3221807,-1.9299663,-0.5869285,57.0,2,-0.06239462
9.426734,-7.837348,1.0725386,38.0,10,-0.062392313
2.5849164,-2.1498523,-0.53250295,49.0,3,-0.06239001
18.228077,-15.165513,2.911459,24.0,11,-0.062387705
2.8852477,-2.4013393,-0.46090987,43.0,4,-0.062385403
43.51304,-36.227966,8.967763,17.0,12,-0.062383097
3.3410025,-2.781643,-0.38034767,47.0,5,-0.062380794
42.206364,-35.15254,10.6769085,35.0,13,-0.06237849
3.9036694,-3.2524147,-0.26628536,46.0,6,-0.062376186
42.07676,-35.069473,12.645848,25.0,14,-0.06237388
4.45407,-3.713626,-0.10122395,30.0,7,-0.062371578
42.802254,-35.69948,14.934378,33.0,15,-0.062369272
1.901192,-1.590207,-0.66412973,43.0,0,-0.06240511
5.628492,-4.709488,0.12810066,57.0,8,-0.062402807
2.111518,-1.7673824,-0.63571167,43.0,1,-0.0624005
7.0778203,-5.9263773,0.48379362,45.0,9,-0.0623982
2.3105755,-1.9346833,-0.58578366,52.0,2,-0.062395893
9.271172,-7.76566,1.0580707,33.0,10,-0.06239359
2.5649068,-2.1491625,-0.53000003,45.0,3,-0.062391285
18.470552,-15.482159,2.9592316,23.0,11,-0.062388983
2.8901172,-2.4233778,-0.46310353,42.0,4,-0.062386677
38.81843,-32.560986,8.024776,26.0,12,-0.062384374
3.3475761,-2.8079543,-0.38226506,40.0,5,-0.06238207
41.722305,-35.00917,10.586846,34.0,13,-0.062379766
3.8856037,-3.261564,-0.2658667,37.0,6,-0.06237746
42.35834,-35.568073,12.769571,17.0,14,-0.062375158
4.4955516,-3.776229,-0.10248053,32.0,7,-0.062372852
45.404343,-38.152813,15.890972,39.0,15,-0.06237055
1.9104042,-1.6092798,-0.6693061,43.0,0,-0.062349815
5.6731844,-4.78065,0.12949686,62.0,8,-0.06234751
2.1291752,-1.7948382,-0.64291006,48.0,1,-0.062345207
7.0662518,-5.9587727,0.48442167,45.0,9,-0.0623429
2.3173156,-1.9541276,-0.5892182,63.0,2,-0.0623406
9.434371,-7.958559,1.0798596,46.0,10,-0.062338293
2.5966406,-2.1912258,-0.53813463,45.0,3,-0.06233599
18.4528,-15.577271,2.9650815,23.0,11,-0.062333684
2.874057,-2.4270475,-0.46188486,45.0,4,-0.062331382
3.3407984,-2.8221939,-0.38261372,38.0,5,-0.062326774
41.671825,-35.21542,10.605165,34.0,13,-0.062324468
3.8726695,-3.273818,-0.265762,42.0,6,-0.062322166
41.78009,-35.331917,12.632351,8.0,14,-0.06231986
4.503716,-3.8099792,-0.10296919,32.0,7,-0.062317558
45.34462,-38.37347,15.916854,39.0,15,-0.06231525
1.922453,-1.6309354,-0.67551774,47.0,0,-0.062294517
5.709825,-4.845711,0.13071853,65.0,8,-0.062292214
2.1332963,-1.811088,-0.64605945,43.0,1,-0.06228991
7.1017356,-6.031238,0.48829454,41.0,9,-0.062287606
2.3074875,-1.9596628,-0.58845496,57.0,2,-0.0622853
9.569003,-8.129471,1.098511,33.0,10,-0.062282998
2.6055334,-2.214348,-0.5415762,52.0,3,-0.062280692
18.505693,-15.73288,2.9823868,25.0,11,-0.06227839
2.858007,-2.4306345,-0.46066615,42.0,4,-0.062276084
38.65035,-32.882393,8.037291,26.0,12,-0.06227378
3.3476188,-2.8480394,-0.38453114,42.0,5,-0.062271476
41.650314,-35.447193,10.631115,34.0,13,-0.062269174
3.8642597,-3.2899063,-0.26597136,39.0,6,-0.062266868
42.743984,-36.40371,12.96213,18.0,14,-0.062264565
4.488867,-3.82438,-0.10293429,34.0,7,-0.062262263
1.899123,-1.6225774,-0.6693061,43.0,0,-0.062239222
5.7111173,-4.8812037,0.13113739,65.0,8,-0.062236916
2.1388109,-1.8286545,-0.6496587,47.0,1,-0.062234614
7.1292086,-6.0975323,0.491644,48.0,9,-0.062232308
2.296157,-1.9638772,-0.5873101,52.0,2,-0.062230006
9.637457,-8.245721,1.1096668,33.0,10,-0.0622277
2.603791,-2.2285676,-0.54282767,52.0,3,-0.062225398
18.50344,-15.842568,2.9909177,24.0,11,-0.06222309
2.8736277,-2.4612575,-0.464566,48.0,4,-0.06222079
51.198933,-43.867294,10.678531,37.0,12,-0.062218487
3.32404,-2.8480406,-0.38296232,37.0,5,-0.06221618
3.8451707,-3.2968743,-0.26544797,40.0,6,-0.062211573
41.885933,-35.925953,12.739878,17.0,14,-0.06220927
4.4982553,-3.8595583,-0.10345787,32.0,7,-0.062206965
1.8963764,-1.631717,-0.6703414,43.0,0,-0.062183924
5.7152624,-4.919372,0.13162605,60.0,8,-0.06218162
2.129461,-1.8335661,-0.6487588,47.0,1,-0.062179316
7.1513286,-6.1576304,0.49457484,50.0,9,-0.062177014
2.298213,-1.9795682,-0.58959985,52.0,2,-0.062174708
9.524091,-8.206482,1.0999055,33.0,10,-0.062172405
2.6004846,-2.2415118,-0.54376626,45.0,3,-0.062170103
18.442013,-15.901875,2.9899426,21.0,11,-0.062167797
2.88456,-2.488129,-0.4677346,38.0,4,-0.062165495
3.2959766,-2.8440073,-0.3808706,38.0,5,-0.062160887
3.8517795,-3.3259401,-0.26670405,34.0,6,-0.06215628
41.990334,-36.270668,12.810062,17.0,14,-0.062153973
4.514184,-3.8992898,-0.10412105,30.0,7,-0.06215167
1.9038087,-1.6497124,-0.6750001,45.0,0,-0.06212863
5.72612,-4.96187,0.13225435,67.0,8,-0.062126324
2.135149,-1.8508289,-0.65235806,47.0,1,-0.06212402
7.162987,-6.2113423,0.4968776,38.0,9,-0.06212172
2.300187,-1.9952972,-0.59188956,49.0,2,-0.062119413
9.638343,-8.363729,1.116465,44.0,10,-0.06211711
2.5781174,-2.2371762,-0.54063755,49.0,3,-0.062114805
18.393675,-15.9668455,2.990674,18.0,11,-0.062112503
2.8583066,-2.4820616,-0.46480972,43.0,4,-0.062110197
3.3100922,-2.8764048,-0.3836596,36.0,5,-0.06210559
41.8314,-36.350662,10.772313,35.0,13,-0.062103286
3.8166115,-3.3177297,-0.2650293,34.0,6,-0.06210098
42.62714,-37.068268,13.041762,9.0,14,-0.06209868
4.508089,-3.9215856,-0.10429558,29.0,7,-0.062096372
42.214283,-36.735138,14.994423,33.0,15,-0.06209407
1.9099737,-1.6661762,-0.67914116,50.0,0,-0.062073335
5.784098,-5.0475683,0.13399959,60.0,8,-0.06207103
2.1301436,-1.8595525,-0.65280795,56.0,1,-0.062068727
7.1984286,-6.286229,0.50085515,46.0,9,-0.06206642
2.3127818,-2.0197015,-0.5968506,45.0,2,-0.06206412
9.586548,-8.374672,1.1136761,38.0,10,-0.062061813
2.550956,-2.2292638,-0.53657025,50.0,3,-0.06205951
18.666624,-16.31839,3.0442965,24.0,11,-0.062057205
2.85112,-2.4933307,-0.46505347,42.0,4,-0.062054902
43.019314,-37.634045,9.052863,17.0,12,-0.062052596
3.297536,-2.884742,-0.38331094,33.0,5,-0.062050294
3.851593,-3.3718152,-0.26827416,37.0,6,-0.062045686
42.523876,-37.23995,13.04986,9.0,14,-0.06204338
4.5304723,-3.9689224,-0.105133295,35.0,7,-0.062041078
41.94632,-36.760036,14.944731,33.0,15,-0.06203877
1.9055977,-1.6741083,-0.67965883,49.0,0,-0.062018037
5.77846,-5.078288,0.13427882,67.0,8,-0.062015735
2.1236393,-1.8669769,-0.65280795,51.0,1,-0.06201343
7.1989384,-6.331103,0.50242525,51.0,9,-0.062011126
2.3086662,-2.0303555,-0.5976138,43.0,2,-0.06200882
9.67244,-8.509418,1.127098,35.0,10,-0.06200652
2.5283298,-2.2251043,-0.5334416,48.0,3,-0.062004212
18.876251,-16.618248,3.0879257,28.0,11,-0.06200191
2.852827,-2.512452,-0.46675962,38.0,4,-0.061999604
42.887688,-37.78398,9.052863,17.0,12,-0.061997302
3.299406,-2.9067712,-0.38470542,45.0,5,-0.061994996
3.8442948,-3.3892012,-0.26858816,33.0,6,-0.061990388
42.14224,-37.166454,12.972478,9.0,14,-0.061988086
4.498596,-3.9688377,-0.104714446,31.0,7,-0.061985783
41.69318,-36.7963,14.900213,32.0,15,-0.061983477
1.891061,-1.6730695,-0.676553,43.0,0,-0.061962742
5.7996316,-5.132886,0.13518634,75.0,8,-0.061960436
2.1317005,-1.8872961,-0.65730697,45.0,1,-0.061958134
7.238096,-6.4104853,0.5067168,42.0,9,-0.06195583
2.3074436,-2.0436084,-0.5991403,46.0,2,-0.061953526
9.709785,-8.602586,1.134942,33.0,10,-0.06195122
2.554549,-2.264051,-0.54063755,46.0,3,-0.061948918
18.868631,-16.728811,3.0962129,18.0,11,-0.06194661
2.9108708,-2.5816677,-0.47772786,46.0,4,-0.06194431
42.734848,-37.915104,9.048484,17.0,12,-0.061942004
3.2966912,-2.924882,-0.385577,47.0,5,-0.0619397
3.8384147,-3.407904,-0.26900685,45.0,6,-0.061935093
42.72328,-37.94484,13.192029,18.0,14,-0.06193279
4.5026536,-4.0004544,-0.105133295,26.0,7,-0.061930485
1.8909789,-1.6848009,-0.6786236,47.0,0,-0.061907444
5.796608,-5.166404,0.13553539,75.0,8,-0.061905142
2.1381905,-1.9063973,-0.6613561,47.0,1,-0.061902836
7.215675,-6.4357123,0.5067168,42.0,9,-0.061900534
2.3164127,-2.0660253,-0.60333806,39.0,2,-0.061898228
9.701999,-8.6563225,1.1375568,24.0,10,-0.061895926
2.5097868,-2.24007,-0.5328159,37.0,3,-0.06189362
18.882679,-16.859356,3.108156,18.0,11,-0.061891317
2.8988802,-2.589168,-0.47724038,46.0,4,-0.061889015
3.3013191,-2.9496467,-0.38732013,30.0,5,-0.061884407
3.8532958,-3.445244,-0.27089092,40.0,6,-0.0618798
41.769897,-37.359722,12.937835,17.0,14,-0.061877493
4.5601945,-4.0801497,-0.10680873,24.0,7,-0.06187519
1.8965895,-1.7017123,-0.68276465,48.0,0,-0.06185215
5.7681212,-5.1772566,0.13529105,62.0,8,-0.061849844
2.1358728,-1.9177552,-0.6627058,48.0,1,-0.06184754
7.2228837,-6.487553,0.5088102,40.0,9,-0.061845236
2.3267138,-2.0898411,-0.6079175,39.0,2,-0.061842933
9.840674,-8.841941,1.1574283,24.0,10,-0.06184063
2.562187,-2.302958,-0.54564345,40.0,3,-0.061838325
18.940329,-17.03002,3.1274114,19.0,11,-0.061836023
2.9031081,-2.6112187,-0.47943404,49.0,4,-0.061833717
33.670143,-30.29546,7.1737723,20.0,12,-0.061831415
3.2895217,-2.95982,-0.38714582,43.0,5,-0.06182911
3.8234353,-3.4426367,-0.26963487,36.0,6,-0.0618245
42.18077,-37.99307,13.106098,27.0,14,-0.0618222
4.5206695,-4.073287,-0.10621535,31.0,7,-0.061819892
1.8963714,-1.713503,-0.68483526,49.0,0,-0.061796855
5.7841344,-5.228201,0.13609387,65.0,8,-0.06179455
2.1233838,-1.9199711,-0.6609062,41.0,1,-0.061792247
7.1972327,-6.5100465,0.5086009,50.0,9,-0.06178994
2.3354208,-2.1124368,-0.6121153,34.0,2,-0.06178764
9.797931,-8.865543,1.1560338,33.0,10,-0.061785333
2.5951395,-2.3490052,-0.5544038,40.0,3,-0.06178303
19.026445,-17.227936,3.1515415,6.0,11,-0.061780725
2.874849,-2.6040123,-0.47626543,41.0,4,-0.061778422
33.517345,-30.37036,7.1637607,30.0,12,-0.061776116
3.289505,-2.980649,-0.38836598,42.0,5,-0.061773814
42.07628,-38.13906,11.038682,36.0,13,-0.06177151
3.7862418,-3.4331543,-0.26785544,36.0,6,-0.061769206
42.22832,-38.303734,13.162335,9.0,14,-0.0617669
4.555294,-4.133386,-0.10736721,28.0,7,-0.061764598
33.508175,-30.415344,12.125672,16.0,15,-0.061762292
1.9032383,-1.7318135,-0.68949395,45.0,0,-0.061741557
5.7895107,-5.2698956,0.13665235,65.0,8,-0.061739255
2.1325188,-1.9418037,-0.6658551,34.0,1,-0.06173695
7.1847997,-6.5445447,0.50933355,51.0,9,-0.061734647
2.3454494,-2.1364408,-0.6166947,37.0,2,-0.06173234
9.862651,-8.986916,1.167364,41.0,10,-0.06173004
2.6000633,-2.370026,-0.5572196,33.0,3,-0.061727732
19.47225,-17.755695,3.2356312,6.0,11,-0.06172543
2.873075,-2.6207204,-0.47748414,39.0,4,-0.061723124
33.362972,-30.44323,7.1534357,30.0,12,-0.061720822
3.296741,-3.0082285,-0.3904577,32.0,5,-0.061718516
33.521255,-30.598385,8.822246,23.0,13,-0.061716214
3.7727602,-3.445003,-0.26775077,34.0,6,-0.061713908
44.825256,-40.94543,14.016251,11.0,14,-0.061711606
4.552647,-4.1600533,-0.10764644,28.0,7,-0.0617093
33.34762,-30.482594,12.106003,31.0,15,-0.061706997
1.9000303,-1.7410568,-0.6905293,46.0,0,-0.061686262
5.8197246,-5.334664,0.1378042,55.0,8,-0.061683957
2.137218,-1.9597722,-0.66945434,32.0,1,-0.061681654
7.189876,-6.5952363,0.5113223,48.0,9,-0.06167935
2.3553388,-2.1605403,-0.6212741,33.0,2,-0.061677046
9.8459,-9.034758,1.1691071,49.0,10,-0.06167474
2.6165133,-2.4017966,-0.5625384,30.0,3,-0.061672438
19.484722,-17.89203,3.248062,6.0,11,-0.061670132
2.8624473,-2.6293905,-0.47724038,37.0,4,-0.06166783
33.252148,-30.555496,7.152498,30.0,12,-0.061665524
3.2964907,-3.029155,-0.39167792,37.0,5,-0.06166322
33.1772,-30.497316,8.75966,46.0,13,-0.061660916
3.8077576,-3.5014124,-0.27110028,40.0,6,-0.061658613
33.287083,-30.61977,10.441778,42.0,14,-0.06165631
4.5498705,-4.1867523,-0.10792568,28.0,7,-0.061654005
41.888477,-38.55892,15.255312,35.0,15,-0.061651703
1.9052991,-1.7581593,-0.6946703,40.0,0,-0.061630964
5.7775574,-5.333244,0.13724573,62.0,8,-0.061628662
2.1461127,-1.9817632,-0.67440325,29.0,1,-0.061626356
7.2078886,-6.658239,0.51425314,42.0,9,-0.061624054
2.35932,-2.179406,-0.62432706,32.0,2,-0.061621748
9.864055,-9.115046,1.1750337,38.0,10,-0.061619446
2.6066628,-2.4095743,-0.5622255,29.0,3,-0.06161714
20.092583,-18.579895,3.3601818,18.0,11,-0.061614837
2.8925967,-2.675762,-0.48382133,43.0,4,-0.06161253
33.204723,-30.726389,7.1653247,30.0,12,-0.06161023
3.2882895,-3.0439239,-0.3920265,32.0,5,-0.061607927
33.04749,-30.591602,8.753554,46.0,13,-0.06160562
3.8321478,-3.548608,-0.27371708,42.0,6,-0.06160332
33.25005,-30.800663,10.463823,21.0,14,-0.061601013
4.5469623,-4.2134824,-0.10820492,31.0,7,-0.06159871
32.96398,-30.557056,12.043885,31.0,15,-0.061596405
1.9370457,-1.800644,-0.7086466,35.0,0,-0.06157567
5.772088,-5.3656325,0.13755988,65.0,8,-0.061573364
2.139182,-1.9892424,-0.67440325,28.0,1,-0.06157106
7.279658,-6.7717814,0.52105683,45.0,9,-0.061568756
2.3556278,-2.192051,-0.6254719,28.0,2,-0.061566453
9.820372,-9.141636,1.1738135,49.0,10,-0.06156415
2.6035964,-2.4244967,-0.56347704,29.0,3,-0.061561845
20.335587,-18.936714,3.4118545,22.0,11,-0.061559543
2.8977644,-2.6993735,-0.48625872,43.0,4,-0.061557237
33.150738,-30.891935,7.1769013,20.0,12,-0.061554935
3.290761,-3.0676105,-0.39359534,38.0,5,-0.06155263
33.041397,-30.811602,8.781794,46.0,13,-0.061550327
3.8234975,-3.566717,-0.27403107,40.0,6,-0.06154802
32.675316,-30.491558,10.318055,15.0,14,-0.06154572
4.608251,-4.300272,-0.110019974,28.0,7,-0.061543413
32.806282,-30.624477,12.02525,31.0,15,-0.06154111
1.9434413,-1.8192765,-0.7133053,34.0,0,-0.06152037
5.80201,-5.433225,0.13874663,62.0,8,-0.06151807
2.1276102,-1.9930727,-0.67305356,22.0,1,-0.061515767
7.2853928,-6.8270965,0.52325493,33.0,9,-0.06151346
2.3608546,-2.2123423,-0.6289065,24.0,2,-0.06151116
9.843638,-9.227639,1.1804373,33.0,10,-0.061508853
2.600881,-2.4389753,-0.5647285,25.0,3,-0.06150655
20.348566,-19.088535,3.4257474,22.0,11,-0.061504245
2.899431,-2.720843,-0.48820862,43.0,4,-0.061501943
33.420395,-31.37286,7.2601247,10.0,12,-0.061499637
3.310538,-3.1077147,-0.39725587,44.0,5,-0.061497334
32.982304,-30.972446,8.794769,70.0,13,-0.06149503
3.8124797,-3.5814092,-0.27413577,42.0,6,-0.061492726
32.594246,-30.629448,10.326154,35.0,14,-0.06149042
4.612857,-4.336308,-0.110508636,28.0,7,-0.061488118
33.3046,-31.318884,12.249906,16.0,15,-0.061485812
1.9497308,-1.8379757,-0.71796405,31.0,0,-0.061465077
5.8368387,-5.5042067,0.1400381,60.0,8,-0.061462775
2.1291454,-2.0085108,-0.675753,23.0,1,-0.06146047
7.370463,-6.9552946,0.53110534,47.0,9,-0.061458167
2.350262,-2.2178748,-0.62814325,23.0,2,-0.06145586
9.901194,-9.346739,1.1912446,33.0,10,-0.06145356
2.6038415,-2.4588892,-0.5672314,27.0,3,-0.061451253
20.417458,-19.287588,3.4486592,26.0,11,-0.06144895
2.9086723,-2.7486718,-0.4913772,36.0,4,-0.061446644
33.003483,-31.19893,7.1931705,10.0,12,-0.061444342
3.3257315,-3.1438887,-0.4003935,45.0,5,-0.061442036
32.95387,-31.162924,8.816139,23.0,13,-0.061439734
3.802857,-3.5974405,-0.2743451,37.0,6,-0.061437428
32.501286,-30.756432,10.330652,35.0,14,-0.061435126
4.626736,-4.3798785,-0.11120673,20.0,7,-0.06143282
32.650826,-30.919556,12.049062,15.0,15,-0.061430518
1.9419019,-1.8434403,-0.7174464,28.0,0,-0.061409783
5.8436904,-5.5493336,0.1406664,60.0,8,-0.061407477
2.124947,-2.0186148,-0.6766528,21.0,1,-0.061405174
7.4617534,-7.088368,0.5393744,37.0,9,-0.06140287
2.3382366,-2.2220082,-0.6269984,22.0,2,-0.061400566
10.02735,-9.532245,1.2104189,33.0,10,-0.06139826
2.6095572,-2.4815757,-0.5703601,25.0,3,-0.061395958
20.594511,-19.591335,3.4900944,23.0,11,-0.061393652
2.9139242,-2.7719846,-0.49381462,22.0,4,-0.06139135
3.3233955,-3.163721,-0.40143937,39.0,5,-0.06138674
42.262455,-40.245987,11.343977,38.0,13,-0.061384436
3.8278751,-3.6465104,-0.2770666,39.0,6,-0.061382134
32.504936,-30.964851,10.364395,20.0,14,-0.061379828
4.483347,-4.2724185,-0.108100206,15.0,7,-0.061377525
32.061504,-30.563786,11.868924,30.0,15,-0.061375223
1.9329847,-1.8472004,-0.7164112,28.0,0,-0.061354484
5.8426023,-5.585263,0.14108525,60.0,8,-0.061352182
2.133734,-2.0404656,-0.6816017,23.0,1,-0.061349876
7.5897713,-7.2580123,0.550365,31.0,9,-0.061347574
2.3393672,-2.2378924,-0.6292881,21.0,2,-0.061345268
10.015838,-9.584728,1.2128593,52.0,10,-0.061342966
2.6041675,-2.492948,-0.57098585,24.0,3,-0.06134066
20.76743,-19.887432,3.5305552,16.0,11,-0.061338358
2.9247882,-2.8008537,-0.49722698,26.0,4,-0.06133605
3.3416562,-3.2022946,-0.40492558,31.0,5,-0.061331443
3.8561256,-3.697891,-0.2799974,39.0,6,-0.06132684
42.572647,-40.825695,13.617637,10.0,14,-0.061324533
4.6769547,-4.486605,-0.1131265,18.0,7,-0.06132223
32.004578,-30.71274,11.8854885,30.0,15,-0.061319925
1.9268486,-1.8536001,-0.7164112,27.0,0,-0.06129919
5.8543067,-5.633725,0.14181826,62.0,8,-0.061296884
2.1255517,-2.0461788,-0.6811518,24.0,1,-0.06129458
7.665094,-7.3814397,0.557692,32.0,9,-0.061292276
2.3386106,-2.252855,-0.6311962,23.0,2,-0.061289974
10.202103,-9.827997,1.2393546,52.0,10,-0.061287668
2.5930412,-2.4988284,-0.5703601,24.0,3,-0.061285365
20.91431,-20.161472,3.5668724,12.0,11,-0.061283063
2.9264247,-2.82207,-0.49917686,23.0,4,-0.061280757
3.3490956,-3.2319255,-0.40719163,27.0,5,-0.06127615
3.896352,-3.7626636,-0.28387025,30.0,6,-0.06127154
32.132206,-31.02971,10.312656,25.0,14,-0.06126924
4.692906,-4.5334697,-0.11389441,14.0,7,-0.061266933
32.01387,-30.937035,11.92897,30.0,15,-0.06126463
1.9339151,-1.874094,-0.72158754,25.0,0,-0.06124389
5.8781285,-5.6982923,0.1429003,57.0,8,-0.06124159
2.111043,-2.0471723,-0.67890227,25.0,1,-0.061239287
7.669527,-7.4400783,0.5599948,37.0,9,-0.06123698
2.3359735,-2.2668803,-0.6327227,22.0,2,-0.06123468
10.231784,-9.929149,1.247373,33.0,10,-0.061232373
2.5952044,-2.5193229,-0.5728631,23.0,3,-0.06123007
20.914328,-20.309906,3.5795467,24.0,11,-0.061227765
2.9160616,-2.8327765,-0.49917686,26.0,4,-0.061225463
3.347228,-3.2539003,-0.4084118,23.0,5,-0.061220855
3.898283,-3.7922382,-0.28502163,22.0,6,-0.061216246
42.262653,-41.112984,13.612238,10.0,14,-0.06121394
4.724984,-4.5980563,-0.11508117,14.0,7,-0.06121164
31.955633,-31.108068,11.949676,30.0,15,-0.061209332
1.9311804,-1.8852179,-0.7231404,24.0,0,-0.061188597
5.888678,-5.750535,0.1436682,45.0,8,-0.061186295
2.1063135,-2.0576193,-0.67980206,23.0,1,-0.06118399
7.6864867,-7.511412,0.5632396,35.0,9,-0.061181687
2.3206298,-2.268565,-0.6308146,21.0,2,-0.06117938
10.266561,-10.036222,1.2560885,33.0,10,-0.06117708
2.59019,-2.5329616,-0.5738017,21.0,3,-0.061174773
20.844006,-20.390589,3.580278,8.0,11,-0.06117247
2.909916,-2.847611,-0.4999081,25.0,4,-0.061170164
42.891285,-41.987587,9.506524,20.0,12,-0.061167862
3.3438203,-3.2745104,-0.40945768,20.0,5,-0.061165556
42.110023,-41.25158,11.458462,39.0,13,-0.061163254
3.8986225,-3.8204796,-0.28606835,17.0,6,-0.061160948
42.067142,-41.22396,13.597841,10.0,14,-0.061158646
4.709527,-4.616743,-0.115116075,14.0,7,-0.06115634
42.72417,-41.897064,16.03384,40.0,15,-0.061154038
1.9159931,-1.8841562,-0.7200346,24.0,0,-0.061133303
5.891797,-5.79592,0.1442616,37.0,8,-0.061130997
2.1098697,-2.0762603,-0.6834013,23.0,1,-0.061128695
7.711569,-7.5913763,0.56711245,37.0,9,-0.06112639
2.3192942,-2.2839427,-0.6327227,21.0,2,-0.061124086
10.296429,-10.139487,1.2642812,30.0,10,-0.06112178
