x,y,z,intensity,ring,time
-3.294871,-17.88203,-0.95293313,22.0,6,-0.048026897
-0.70074874,-3.7662253,-1.0264764,4.0,0,-0.047999248
-15.163685,-81.41937,1.4456177,63.0,8,-0.047996942
-0.79927063,-4.287416,-1.006881,27.0,1,-0.04799464
-0.9900052,-5.305408,-1.0490679,30.0,2,-0.04799003
-2.3412406,-12.534513,1.1155934,2.0,10,-0.047987726
-1.2099934,-6.47179,-1.0427923,29.0,3,-0.047985423
-2.3140213,-12.364865,1.5445722,64.0,11,-0.04798312
-1.5603234,-8.329475,-1.0405205,45.0,4,-0.047980815
-10.147919,-54.12045,8.721223,16.0,12,-0.047978513
-2.1583207,-11.510665,-1.0246029,35.0,5,-0.047976207
-9.923732,-52.873882,10.457096,33.0,13,-0.047973905
-3.3768165,-17.974455,-0.95848083,10.0,6,-0.0479716
-9.125711,-48.528545,11.400069,12.0,14,-0.047969297
-0.7182108,-3.7865329,-1.032688,6.0,0,-0.04794395
-0.82732874,-4.3535213,-1.0230774,32.0,1,-0.047939345
-1.0096185,-5.3077054,-1.0502127,32.0,2,-0.047934737
-1.2506977,-6.562609,-1.0581229,31.0,3,-0.04793013
-2.3556795,-12.348912,1.5435972,48.0,11,-0.047927823
-1.6050265,-8.405872,-1.0507576,45.0,4,-0.04792552
-2.3343494,-12.213924,1.9695101,41.0,12,-0.047923215
-2.2310274,-11.673316,-1.039768,43.0,5,-0.047920913
-10.080933,-52.696228,10.428857,33.0,13,-0.047918607
-3.3415024,-17.450577,-0.93116146,7.0,6,-0.047916304
-9.291747,-48.47917,11.396021,6.0,14,-0.047914
-0.7339899,-3.7972798,-1.0363115,7.0,0,-0.047888655
-0.8384449,-4.329561,-1.0181284,29.0,1,-0.047884047
-1.0270199,-5.298367,-1.0490679,28.0,2,-0.04787944
-1.2781161,-6.581473,-1.0618773,36.0,3,-0.04787483
-2.3946064,-12.31918,1.5409162,38.0,11,-0.04787253
-1.6400446,-8.429447,-1.0544137,43.0,4,-0.047870222
-2.3822553,-12.232848,1.9738904,41.0,12,-0.04786792
-2.2908027,-11.763241,-1.0484836,44.0,5,-0.047865614
-10.2272625,-52.468014,10.390695,33.0,13,-0.047863312
-3.5836844,-18.367987,-0.98077595,5.0,6,-0.047861006
-9.519183,-48.74481,11.466206,19.0,14,-0.047858704
-13.296027,-67.95876,18.554737,52.0,15,-0.047854096
-0.74798757,-3.7984858,-1.0373468,10.0,0,-0.04783336
-0.8626052,-4.3724937,-1.0289261,36.0,1,-0.047828753
-1.0485504,-5.3101587,-1.0521209,30.0,2,-0.047824144
-1.3068323,-6.6060386,-1.0665703,40.0,3,-0.047819536
-2.4418337,-12.332166,1.5435972,2.0,11,-0.04781723
-1.6814224,-8.484035,-1.0619696,48.0,4,-0.047814928
-2.4253275,-12.226396,1.9742032,15.0,12,-0.047812622
-2.343094,-11.811847,-1.0535386,36.0,5,-0.04781032
-3.687099,-18.553219,-0.9913478,5.0,6,-0.04780571
-10.204801,-51.302998,12.076272,7.0,14,-0.047803406
-13.508251,-67.7869,18.520575,52.0,15,-0.047798797
-0.76124185,-3.7958517,-1.0373468,10.0,0,-0.047777653
-0.88054985,-4.38283,-1.0320754,34.0,1,-0.047773045
-14.702927,-73.116,3.9085546,41.0,9,-0.047770742
-1.0786908,-5.3642077,-1.0635694,29.0,2,-0.047768436
-1.3294939,-6.5995,-1.0662575,31.0,3,-0.04776383
-2.4852605,-12.325513,1.5438409,56.0,11,-0.047761526
-1.7255573,-8.55011,-1.0709878,46.0,4,-0.04775922
-2.392594,-11.844608,-1.0571991,40.0,5,-0.04775461
-10.205027,-50.474865,10.009841,31.0,13,-0.04775231
-3.796205,-18.759483,-1.003071,5.0,6,-0.047750004
-9.781491,-48.293266,11.375775,12.0,14,-0.0477477
-13.424403,-66.16034,18.088865,50.0,15,-0.047743093
-0.7779659,-3.810206,-1.0420054,13.0,0,-0.04772236
-0.8794414,-4.299543,-1.0131795,27.0,1,-0.04771775
-1.1041034,-5.393107,-1.0700569,35.0,2,-0.047713142
-1.3537124,-6.6006246,-1.0671961,29.0,3,-0.047708534
-1.7545935,-8.540146,-1.0705004,43.0,4,-0.047703926
-2.5177848,-12.243993,1.9798348,13.0,12,-0.04770162
-2.424294,-11.789347,-1.0530157,28.0,5,-0.047699317
-10.349489,-50.285103,9.979311,31.0,13,-0.04769701
-3.9023647,-18.943691,-1.0136429,5.0,6,-0.04769471
-10.267972,-49.80097,11.739295,13.0,14,-0.047692403
-0.7979433,-3.8396223,-1.0508054,18.0,0,-0.04766706
-0.9147004,-4.3937464,-1.0361246,36.0,1,-0.047662452
-1.1149123,-5.35078,-1.0624245,34.0,2,-0.047657844
-1.3807818,-6.615196,-1.0703248,29.0,3,-0.047653235
-1.7746427,-8.487335,-1.0646507,43.0,4,-0.047648627
-2.58627,-12.368992,2.001423,5.0,12,-0.047646325
-2.4674726,-11.790564,-1.0538872,26.0,5,-0.04764402
-4.0176435,-19.164528,-1.0262035,5.0,6,-0.04763941
-10.432539,-49.72096,11.728949,6.0,14,-0.04763711
-0.80094934,-3.787672,-1.0373468,19.0,0,-0.047611766
-10.586044,-50.061176,0.89314437,19.0,8,-0.04760946
-0.92644113,-4.377343,-1.0329752,34.0,1,-0.047607157
-1.1339905,-5.3487763,-1.0628061,34.0,2,-0.04760255
-1.4064007,-6.6279716,-1.0731405,22.0,3,-0.04759794
-11.943079,-56.236042,7.0589166,14.0,11,-0.047595635
-1.8180494,-8.553247,-1.073669,33.0,4,-0.047593333
-2.634773,-12.385008,2.00549,15.0,12,-0.04759103
-2.474175,-11.620136,-1.0394194,16.0,5,-0.047588725
-10.613841,-49.84865,9.906803,31.0,13,-0.047586422
-4.137371,-19.414808,-1.0403342,5.0,6,-0.047584116
-10.601835,-49.70705,11.733897,13.0,14,-0.047581814
-0.815941,-3.7963269,-1.0404526,20.0,0,-0.047556467
-10.774191,-50.08647,0.8942613,9.0,8,-0.047554165
-0.9400748,-4.366462,-1.0311756,32.0,1,-0.04755186
-1.1732253,-5.444785,-1.0826503,30.0,2,-0.04754725
-1.4403641,-6.6732254,-1.0812751,23.0,3,-0.047542647
-1.8621566,-8.612818,-1.0819561,35.0,4,-0.04753804
-2.6817489,-12.39311,2.0083058,46.0,12,-0.047535732
-2.639131,-12.185866,-1.0908413,38.0,5,-0.04753343
-4.280425,-19.747692,-1.0589658,2.0,6,-0.047528822
-10.742639,-49.519295,11.698355,20.0,14,-0.047526516
-0.8397586,-3.8386047,-1.052876,27.0,0,-0.047501173
-10.960067,-50.099354,0.89516884,29.0,8,-0.047498867
-0.9703154,-4.431686,-1.0473721,32.0,1,-0.047496565
-14.313804,-65.32031,3.504521,26.0,9,-0.047494262
-1.1914914,-5.432778,-1.0811238,32.0,2,-0.047491957
-1.4673564,-6.679478,-1.0831524,26.0,3,-0.04748735
-12.345613,-56.19783,7.0647664,14.0,11,-0.047485046
-1.914375,-8.707082,-1.0946305,41.0,4,-0.04748274
-2.7000766,-12.260246,-1.0983366,44.0,5,-0.047478132
-4.4422665,-20.137547,-1.0807376,5.0,6,-0.047473524
-10.932047,-49.515747,11.706903,20.0,14,-0.04747122
-0.8565083,-3.8507357,-1.057017,24.0,0,-0.04744588
-11.137533,-50.031517,0.8946802,9.0,8,-0.047443572
-0.98316175,-4.4128833,-1.0437729,37.0,1,-0.04744127
-14.427059,-64.755295,3.4768875,25.0,9,-0.047438964
-1.2266849,-5.501401,-1.0956253,34.0,2,-0.047436662
-1.4846345,-6.6473255,-1.0787722,26.0,3,-0.047432054
-1.9618778,-8.769747,-1.1034052,45.0,4,-0.047427446
-11.850362,-52.97204,8.597326,15.0,12,-0.04742514
-2.7515614,-12.289633,-1.1018229,48.0,5,-0.047422837
-12.017949,-53.633293,10.683778,35.0,13,-0.04742053
-4.57809,-20.414246,-1.0964384,2.0,6,-0.04741823
-11.122315,-49.555244,11.725349,47.0,14,-0.047415923
-0.8725009,-3.8590283,-1.0601228,24.0,0,-0.04739058
-11.269428,-49.844124,0.89199245,19.0,8,-0.047388278
-1.0055315,-4.4438105,-1.0518711,30.0,1,-0.047385972
-1.2406731,-5.4741096,-1.091046,34.0,2,-0.047381364
-1.5599802,-6.8773913,-1.1169422,40.0,3,-0.047376756
-12.661181,-55.773438,7.0223556,14.0,11,-0.047374453
-1.9913877,-8.765129,-1.1036489,43.0,4,-0.047372147
-2.7926772,-12.272182,-1.1011256,40.0,5,-0.04736754
-12.166117,-53.46297,10.657827,34.0,13,-0.047365237
-4.722043,-20.733904,-1.114442,2.0,6,-0.04736293
-11.468908,-50.31799,11.914758,14.0,14,-0.04736063
-0.88399637,-3.850465,-1.0585699,23.0,0,-0.047335286
-11.551709,-50.27612,0.90043944,19.0,8,-0.04733298
-1.0184171,-4.4288783,-1.0491717,27.0,1,-0.047330678
-1.2605805,-5.477618,-1.0925723,34.0,2,-0.04732607
-1.5680046,-6.8026075,-1.1056789,26.0,3,-0.04732146
-2.0509975,-8.883848,-1.1194919,41.0,4,-0.047316853
-2.8477094,-12.324974,-1.1067036,42.0,5,-0.047312245
-12.242083,-52.941982,10.562424,34.0,13,-0.047309943
-4.8808484,-21.090897,-1.134539,3.0,6,-0.047307637
-11.677905,-50.421932,11.948951,14.0,14,-0.047305334
-0.8864602,-3.8003218,-1.0456289,28.0,0,-0.047279987
-11.76442,-50.395172,0.90330166,30.0,8,-0.047277685
-1.0489438,-4.4898167,-1.0644684,30.0,1,-0.04727538
-1.2881852,-5.5095067,-1.0998231,34.0,2,-0.04727077
-13.623893,-58.22287,5.2314363,22.0,10,-0.04726847
-1.6129099,-6.88749,-1.1203837,30.0,3,-0.047266163
-2.0779157,-8.85924,-1.1172982,26.0,4,-0.04726156
-2.8911698,-12.316898,-1.1068779,44.0,5,-0.04725695
-5.0550013,-21.501467,-1.1575668,3.0,6,-0.047252342
-11.853389,-50.378963,11.9485,7.0,14,-0.047250036
-0.9068466,-3.8272817,-1.0539112,27.0,0,-0.047224693
-11.929644,-50.30905,0.90249884,10.0,8,-0.047222387
-1.0614601,-4.472855,-1.0613191,26.0,1,-0.047220085
-1.3137611,-5.5317183,-1.1051657,35.0,2,-0.047215477
-13.792948,-58.03152,5.2185373,22.0,10,-0.047213174
-1.643798,-6.910644,-1.1250768,30.0,3,-0.04721087
-2.119408,-8.896348,-1.1229043,41.0,4,-0.04720626
-12.340502,-51.75996,8.427752,14.0,12,-0.047203958
-2.9404562,-12.323661,-1.1084467,44.0,5,-0.047201652
-5.2728987,-22.082022,-1.1898057,3.0,6,-0.047197044
-0.9303669,-3.8633735,-1.0647817,27.0,0,-0.0471694
-11.94694,-49.60999,0.89070106,19.0,8,-0.047167093
-1.0994394,-4.561953,-1.0833644,30.0,1,-0.04716479
-1.3427787,-5.5631266,-1.1124165,30.0,2,-0.047160182
-1.6598327,-6.8661714,-1.1188195,27.0,3,-0.047155574
-13.276336,-54.91975,6.937535,14.0,11,-0.047153268
-2.1938598,-9.068333,-1.145572,33.0,4,-0.047150966
-12.5796795,-51.958477,8.467173,15.0,12,-0.04714866
-2.986739,-12.326877,-1.1096668,38.0,5,-0.047146358
-5.4781413,-22.574953,-1.2174392,3.0,6,-0.04714175
-0.9401762,-3.8450894,-1.0606405,27.0,0,-0.0471141
-12.1191845,-49.52702,0.8900029,38.0,8,-0.047111798
-1.1166153,-4.5597854,-1.0838141,32.0,1,-0.047109492
-13.82123,-56.397434,3.0431268,12.0,9,-0.04710719
-1.3481705,-5.5012007,-1.100968,32.0,2,-0.047104884
-14.021825,-57.1728,5.150207,22.0,10,-0.04710258
-1.7167511,-6.994626,-1.1407202,32.0,3,-0.047100276
-2.1834881,-8.882881,-1.123148,43.0,4,-0.047095668
-12.757763,-51.86214,8.459038,15.0,12,-0.047093365
-3.0483124,-12.391828,-1.116465,40.0,5,-0.04709106
-5.6830373,-23.067661,-1.2450725,3.0,6,-0.04708645
-17.21259,-69.81404,16.600489,18.0,14,-0.04708415
-20.226463,-81.97672,-1.4738208,63.0,7,-0.047081843
-0.948938,-3.823035,-1.055464,27.0,0,-0.047058806
-12.2283535,-49.22824,0.88539547,28.0,8,-0.0470565
-1.1546215,-4.644746,-1.1049596,37.0,1,-0.047054198
-14.168447,-56.95356,3.0757844,12.0,9,-0.04705189
-1.3958026,-5.6107726,-1.123865,32.0,2,-0.04704959
-14.253072,-57.251106,5.1617117,22.0,10,-0.047047284
-1.7354251,-6.9655895,-1.1369658,27.0,3,-0.04704498
-2.2582145,-9.050476,-1.1453282,45.0,4,-0.047040373
-12.919573,-51.740635,8.446524,14.0,12,-0.047038067
-3.1132689,-12.468099,-1.1243091,40.0,5,-0.047035765
-6.2907004,-25.155787,-1.3589556,4.0,6,-0.047031157
-17.621756,-70.41519,16.757954,18.0,14,-0.047028854
-0.9726599,-3.8609123,-1.0668522,27.0,0,-0.047003508
-12.519397,-49.658375,0.89391226,19.0,8,-0.047001205
-1.176548,-4.6633615,-1.1103585,33.0,1,-0.0469989
-14.2898035,-56.639015,3.0613399,12.0,9,-0.046996597
-1.4254714,-5.6458397,-1.131879,30.0,2,-0.04699429
-1.7519807,-6.9288483,-1.1319599,30.0,3,-0.046989683
-13.832036,-54.663677,6.923398,14.0,11,-0.04698738
-2.3058736,-9.106042,-1.1533716,43.0,4,-0.046985075
-3.1464942,-12.416598,-1.1206485,40.0,5,-0.04698047
-13.468324,-53.109356,10.650195,34.0,13,-0.046978164
-6.4261246,-25.321455,-1.3691088,12.0,6,-0.046975862
-15.22669,-59.955254,-1.0797455,34.0,7,-0.046971254
-0.9813464,-3.8387768,-1.0616758,29.0,0,-0.046948213
-12.724617,-49.77545,0.8967745,9.0,8,-0.046945907
-1.1929718,-4.66321,-1.1112581,36.0,1,-0.046943605
-15.6940975,-61.302097,3.3163204,19.0,9,-0.0469413
-1.4466324,-5.646535,-1.1330239,30.0,2,-0.046938997
-1.7989869,-7.016761,-1.1472905,32.0,3,-0.04693439
-14.061582,-54.805946,6.9472847,14.0,11,-0.046932086
-2.3296392,-9.073349,-1.150203,35.0,4,-0.04692978
-3.201725,-12.451849,-1.1248319,40.0,5,-0.046925172
-13.869266,-53.93905,10.82574,35.0,13,-0.04692287
-6.5613236,-25.499233,-1.37989,12.0,6,-0.046920564
-15.435882,-59.901733,-1.0797455,34.0,7,-0.046915956
-0.9911629,-3.824281,-1.0585699,27.0,0,-0.046892915
-13.156837,-50.727596,0.9147504,20.0,8,-0.046890613
-1.2092417,-4.6590176,-1.1112581,36.0,1,-0.04688831
-15.872833,-61.111626,3.3089933,19.0,9,-0.046886005
-1.468804,-5.655008,-1.1356952,29.0,2,-0.046883702
-14.609289,-56.206562,5.080831,21.0,10,-0.046881396
-1.8363981,-7.060144,-1.1554251,31.0,3,-0.046879094
-14.242798,-54.718105,6.9424095,14.0,11,-0.04687679
-2.3783102,-9.130476,-1.1584901,45.0,4,-0.046874486
-3.2741587,-12.5606985,-1.1356393,42.0,5,-0.046869878
-6.7839723,-25.988289,-1.407628,8.0,6,-0.04686527
-18.777496,-71.83092,-1.2959459,54.0,7,-0.04686066
-1.0236627,-3.8936644,-1.0787579,24.0,0,-0.04683762
-13.622308,-51.77787,0.9345415,43.0,8,-0.04683532
-1.2438558,-4.724495,-1.1279047,44.0,1,-0.046833012
-1.4955368,-5.6764255,-1.141038,34.0,2,-0.046828404
-1.873126,-7.0995317,-1.162934,31.0,3,-0.046823796
-14.498578,-54.91373,6.9736085,14.0,11,-0.046821494
-2.4203088,-9.160502,-1.1633649,41.0,4,-0.046819188
-15.418186,-58.31429,9.553454,21.0,12,-0.046816885
-3.3077967,-12.510669,-1.132153,32.0,5,-0.04681458
-1.0506864,-3.9404662,-1.092734,29.0,0,-0.046782326
-13.806574,-51.743534,0.93478584,32.0,8,-0.04678002
-1.2638584,-4.733304,-1.1310539,33.0,1,-0.046777718
-15.988708,-59.83773,3.245981,16.0,9,-0.04677541
-1.5285197,-5.7204843,-1.1509598,40.0,2,-0.04677311
-1.9121926,-7.1463804,-1.1716943,31.0,3,-0.0467685
-14.006268,-52.30862,6.648948,13.0,11,-0.046766195
-2.437371,-9.096393,-1.1562965,33.0,4,-0.046763893
-3.36383,-12.545233,-1.1363366,40.0,5,-0.046759285
-14.615487,-54.46969,10.962359,36.0,13,-0.04675698
-1.0805703,-3.9964511,-1.1092985,30.0,0,-0.046727028
-14.065973,-51.986496,0.94005644,11.0,8,-0.046724726
-1.2681501,-4.683719,-1.1202562,33.0,1,-0.04672242
-16.232994,-59.91264,3.2530987,34.0,9,-0.046720117
-1.5556661,-5.7416434,-1.1563026,42.0,2,-0.04671781
-1.9386795,-7.1453815,-1.1726329,36.0,3,-0.046713203
-14.19605,-52.286232,6.6523604,13.0,11,-0.0467109
-2.5143883,-9.254491,-1.1775017,43.0,4,-0.046708595
-3.4264202,-12.602627,-1.1426117,36.0,5,-0.046703987
-9.028497,-33.16177,-1.8011944,21.0,6,-0.046699382
-1.0940031,-3.990792,-1.1087809,33.0,0,-0.046671733
-13.908789,-50.70287,0.91771734,10.0,8,-0.046669427
-1.294809,-4.716849,-1.1292543,30.0,1,-0.046667125
-1.5819392,-5.7588954,-1.160882,35.0,2,-0.046662517
-1.9709436,-7.1652355,-1.177013,39.0,3,-0.04665791
-14.413248,-52.362675,6.6684475,13.0,11,-0.046655606
-2.5535305,-9.270536,-1.1806704,39.0,4,-0.0466533
-3.4640362,-12.56754,-1.14052,42.0,5,-0.046648692
-9.19628,-33.31873,-1.8114524,14.0,6,-0.046644084
-1.1141342,-4.0092845,-1.1149925,28.0,0,-0.046616435
-14.025152,-50.436302,0.9137731,20.0,8,-0.046614133
-1.3044741,-4.687894,-1.1234056,32.0,1,-0.04661183
-1.6057186,-5.7665777,-1.1635534,36.0,2,-0.046607222
-16.682182,-59.869877,5.4374723,27.0,10,-0.046604916
-2.0097365,-7.2077847,-1.1851476,35.0,3,-0.046602614
-14.600744,-52.329258,6.670641,26.0,11,-0.04660031
-2.612567,-9.357165,-1.1928571,43.0,4,-0.046598006
-3.5186086,-12.59375,-1.1440063,42.0,5,-0.046593398
-9.509473,-33.99039,-1.8497622,14.0,6,-0.04658879
-14.046968,-50.141632,-0.9089213,19.0,7,-0.04658418
-1.1427866,-4.0574374,-1.1294864,30.0,0,-0.04656114
-14.200575,-50.385117,0.9137382,20.0,8,-0.04655884
-1.3012588,-4.613915,-1.1067592,30.0,1,-0.046556532
-16.698921,-59.1704,3.2221158,32.0,9,-0.04655423
-1.6327692,-5.7855,-1.1685143,35.0,2,-0.046551924
-2.0295134,-7.1817164,-1.182019,42.0,3,-0.046547316
-2.6544015,-9.380461,-1.1970007,45.0,4,-0.046542708
-15.181739,-53.615414,8.825721,16.0,12,-0.046540406
-3.5620036,-12.579475,-1.143832,36.0,5,-0.0465381
-9.696167,-34.197178,-1.8628463,15.0,6,-0.04653349
-14.185865,-49.965332,-0.9066176,18.0,7,-0.046528883
-1.1479292,-4.0218434,-1.1206865,28.0,0,-0.046505846
-1.317356,-4.609345,-1.1067592,33.0,1,-0.046501238
-1.6594329,-5.802417,-1.1730938,33.0,2,-0.04649663
-2.0551133,-7.176488,-1.1823319,35.0,3,-0.04649202
-2.6909604,-9.384494,-1.198707,46.0,4,-0.046487413
-16.472595,-57.408978,9.459593,19.0,12,-0.046485107
-3.6295202,-12.649314,-1.1513274,44.0,5,-0.046482805
-16.646416,-57.976562,11.724832,40.0,13,-0.0464805
-9.850776,-34.285976,-1.8695451,7.0,6,-0.046478197
-14.364615,-49.93088,-0.9068968,37.0,7,-0.04647359
-1.1290766,-3.9066608,-1.0896282,27.0,0,-0.04645109
-15.118202,-52.275494,0.9498647,11.0,8,-0.04644879
-1.3629706,-4.709779,-1.1319537,31.0,1,-0.046446484
-16.719631,-57.737396,3.150206,26.0,9,-0.04644418
-1.6835794,-5.813854,-1.1765283,38.0,2,-0.046441875
-14.243478,-49.154446,4.4773645,34.0,10,-0.046439573
-2.086052,-7.1942973,-1.1863991,35.0,3,-0.046437267
-15.067466,-51.9302,6.639199,13.0,11,-0.046434965
-2.732028,-9.409835,-1.2030942,46.0,4,-0.04643266
-3.7732131,-12.979027,-1.1825291,16.0,5,-0.04642805
-10.250058,-35.235016,-1.9231373,8.0,6,-0.046423443
-1.1553375,-3.943282,-1.1010163,29.0,0,-0.046395797
-15.366926,-52.448853,0.9539834,11.0,8,-0.04639349
-1.3892705,-4.7386537,-1.140052,41.0,1,-0.04639119
-1.6971359,-5.781272,-1.1711857,35.0,2,-0.04638658
-14.302247,-48.689,4.4397135,33.0,10,-0.046384275
-2.1068356,-7.16765,-1.1832705,35.0,3,-0.046381973
-15.296782,-52.041073,6.66016,13.0,11,-0.046379667
-2.7592566,-9.381195,-1.2006569,46.0,4,-0.046377365
-3.9423246,-13.386247,-1.2208776,16.0,5,-0.046372756
-15.483533,-52.540833,10.647142,34.0,13,-0.04637045
-10.551996,-35.783417,-1.9551668,16.0,6,-0.04636815
-15.712644,-53.24972,-0.96909726,24.0,7,-0.04636354
-1.1828367,-3.985526,-1.1139573,28.0,0,-0.0463405
-15.330214,-51.62156,0.9399517,11.0,8,-0.046338197
-1.4177314,-4.7708898,-1.14905,45.0,1,-0.04633589
-1.7363306,-5.8392944,-1.1841607,35.0,2,-0.046331283
-14.459623,-48.596767,4.4358788,33.0,10,-0.04632898
-2.1510072,-7.224624,-1.193908,38.0,3,-0.046326675
-15.446612,-51.847683,6.642611,13.0,11,-0.046324372
-2.8197093,-9.458528,-1.2118689,43.0,4,-0.046322066
-16.564667,-55.52968,9.178011,17.0,12,-0.046319764
-3.991306,-13.380041,-1.2215749,14.0,5,-0.04631746
-10.774007,-36.071697,-1.9729611,8.0,6,-0.04631285
-1.1622628,-3.8666675,-1.0818636,28.0,0,-0.046285205
-15.708441,-52.226475,0.95195895,11.0,8,-0.0462829
-1.4310073,-4.7547154,-1.1463506,33.0,1,-0.046280596
-1.7714224,-5.882074,-1.1940827,38.0,2,-0.04627599
-14.690675,-48.75011,4.45453,33.0,10,-0.046273682
-2.171081,-7.2000494,-1.1910921,33.0,3,-0.04627138
-15.403867,-51.05226,6.5475526,12.0,11,-0.046269074
-2.849265,-9.437226,-1.2104064,43.0,4,-0.04626677
-4.1002164,-13.572011,-1.2404004,10.0,5,-0.046262164
-11.42608,-37.77353,-2.0682125,9.0,6,-0.046257555
-1.2370722,-4.0640326,-1.1382862,29.0,0,-0.046229906
-15.86035,-52.071857,0.9501439,11.0,8,-0.046227604
-1.4623665,-4.7981577,-1.158048,45.0,1,-0.0462253
-17.367516,-56.9844,3.1220496,12.0,9,-0.046222996
-1.7907988,-5.8720984,-1.1933196,28.0,2,-0.04622069
-14.868322,-48.723305,4.4567957,33.0,10,-0.046218388
-2.2135067,-7.249105,-1.2004782,33.0,3,-0.046216086
-15.610976,-51.093113,6.55974,12.0,11,-0.04621378
-2.878129,-9.413934,-1.2087002,48.0,4,-0.046211477
-4.172045,-13.637636,-1.2477216,10.0,5,-0.04620687
-16.06391,-52.47718,10.667749,34.0,13,-0.046204563
-11.645612,-38.019867,-2.0839133,9.0,6,-0.04620226
-1.2319043,-3.996921,-1.1206865,27.0,0,-0.046174612
-18.249905,-59.21193,1.0815256,18.0,8,-0.046172306
-1.4817158,-4.8044553,-1.1607474,37.0,1,-0.046170004
-17.707664,-57.38146,3.1471708,13.0,9,-0.0461677
-1.8141818,-5.875191,-1.1952276,19.0,2,-0.046165396
-15.060653,-48.743446,4.46342,17.0,10,-0.046163093
-2.2357843,-7.2360625,-1.1995395,35.0,3,-0.046160787
-15.817849,-51.162437,6.5753393,13.0,11,-0.046158485
-2.9175432,-9.430887,-1.2121125,50.0,4,-0.04615618
-15.417068,-49.80451,8.257551,14.0,12,-0.046153877
-4.2597103,-13.752407,-1.2595748,8.0,5,-0.04615157
-16.397005,-52.937466,10.772313,35.0,13,-0.04614927
-12.090914,-39.011215,-2.1404362,9.0,6,-0.046146963
-1.2503283,-4.0094113,-1.1253452,28.0,0,-0.046119317
-18.370708,-58.872982,1.0764993,36.0,8,-0.04611701
-1.4984769,-4.799254,-1.1607474,39.0,1,-0.04611471
-16.585037,-53.085213,2.9146943,22.0,9,-0.046112403
-1.8272147,-5.84853,-1.1910298,29.0,2,-0.0461101
-15.362509,-49.142025,4.504557,17.0,10,-0.046107795
-2.2751822,-7.273462,-1.2070485,33.0,3,-0.046105493
-16.106636,-51.459282,6.6206746,13.0,11,-0.046103187
-2.9575653,-9.443378,-1.2150375,48.0,4,-0.046100885
-15.555377,-49.637295,8.238779,14.0,12,-0.04609858
-4.348188,-13.8750925,-1.2721252,8.0,5,-0.046096276
-12.210269,-38.915417,-2.1375053,9.0,6,-0.04609167
-1.2730393,-4.0326567,-1.1331098,30.0,0,-0.04606402
-18.399624,-58.249798,1.0662723,33.0,8,-0.046061717
-1.5281416,-4.8348727,-1.1706454,37.0,1,-0.04605941
-16.582333,-52.432858,2.8820367,21.0,9,-0.04605711
-1.8736662,-5.9244785,-1.207821,24.0,2,-0.046054803
-16.841969,-53.221516,4.883859,20.0,10,-0.0460525
-2.3100994,-7.2956066,-1.2120544,33.0,3,-0.046050195
-16.290956,-51.417885,6.6226244,13.0,11,-0.046047892
-2.9899101,-9.431106,-1.2147937,46.0,4,-0.046045586
-15.850404,-49.966805,8.302604,14.0,12,-0.046043284
-4.4447923,-14.01176,-1.2860701,10.0,5,-0.04604098
-17.982601,-56.65403,11.553866,39.0,13,-0.046038676
-12.398025,-39.036263,-2.1465073,9.0,6,-0.04603637
-20.652946,-64.94899,-1.1896259,44.0,7,-0.046031766
-1.2953402,-4.053951,-1.1403568,32.0,0,-0.046008725
-18.71672,-58.541393,1.0727994,17.0,8,-0.04600642
-1.5266016,-4.7719707,-1.1566983,38.0,1,-0.046004117
-15.096891,-47.16268,2.5952356,16.0,9,-0.04600181
-1.9015173,-5.940339,-1.2124004,37.0,2,-0.04599951
-17.085989,-53.344555,4.9005933,20.0,10,-0.045997202
-2.3518288,-7.3382893,-1.2205019,23.0,3,-0.0459949
-3.0149293,-9.396038,-1.2116251,41.0,4,-0.045990292
-15.764453,-49.10054,8.167757,13.0,12,-0.045987986
-4.532654,-14.117569,-1.2972261,6.0,5,-0.045985684
-16.462868,-51.245094,10.462439,33.0,13,-0.04598338
-4.8060555,-14.933285,-0.27382827,33.0,7,-0.045976467
-1.3231547,-4.091682,-1.1522624,27.0,0,-0.045953427
-18.9148,-58.45668,1.0724504,17.0,8,-0.045951124
-1.5378468,-4.749927,-1.1526492,30.0,1,-0.04594882
-15.284204,-47.179996,2.5991085,8.0,9,-0.045946516
-1.9355528,-5.9747553,-1.220796,28.0,2,-0.04594421
-17.04478,-52.583324,4.8360977,19.0,10,-0.045941908
-2.4261854,-7.480356,-1.2455313,31.0,3,-0.045939602
-16.877472,-52.00529,6.713295,27.0,11,-0.0459373
-3.0703933,-9.455316,-1.2206435,39.0,4,-0.045934997
-15.911341,-48.970062,8.155243,27.0,12,-0.04593269
-4.639782,-14.279778,-1.3136113,6.0,5,-0.04593039
-4.8340573,-14.860051,-0.8189531,76.0,6,-0.04592578
-4.8569145,-14.912614,-0.27375844,97.0,7,-0.045921173
-1.3494452,-4.123759,-1.1626152,28.0,0,-0.045898132
-17.037916,-52.035305,0.95572865,11.0,8,-0.045895826
-1.5671597,-4.783419,-1.1620972,35.0,1,-0.045893524
-18.822758,-57.418587,3.1667445,27.0,9,-0.045891218
-1.9435534,-5.928786,-1.212782,22.0,2,-0.045888916
-17.171093,-52.34934,4.8200607,19.0,10,-0.045886613
-2.4713778,-7.5300245,-1.2552303,36.0,3,-0.045884307
-17.333899,-52.783447,6.821515,14.0,11,-0.045882005
-3.108956,-9.461513,-1.2228371,43.0,4,-0.0458797
-16.020481,-48.726574,8.123956,13.0,12,-0.045877397
-4.731292,-14.390307,-1.3252902,6.0,5,-0.04587509
-16.950285,-51.524284,10.543343,34.0,13,-0.04587279
-4.8834033,-14.835497,-0.81853443,100.0,6,-0.045870483
-4.892665,-14.84619,-0.27285093,100.0,7,-0.045865875
-1.3383282,-4.041998,-1.1408744,31.0,0,-0.045842838
-17.274794,-52.14256,0.9588003,11.0,8,-0.04584053
-1.6096004,-4.85561,-1.1809931,31.0,1,-0.04583823
-15.691173,-47.307213,2.612088,8.0,9,-0.045835923
-1.965473,-5.925692,-1.2135452,18.0,2,-0.04583362
-17.435314,-52.53491,4.8427215,19.0,10,-0.045831315
-2.512588,-7.5663457,-1.2627392,36.0,3,-0.045829013
-17.385344,-52.323242,6.7698426,13.0,11,-0.045826707
-3.1688948,-9.531603,-1.2333179,37.0,4,-0.045824405
-16.262793,-48.88778,8.160248,27.0,12,-0.0458221
-4.8399806,-14.549524,-1.3415012,6.0,5,-0.045819797
-17.045712,-51.21146,10.491442,34.0,13,-0.04581749
-4.9660816,-14.911213,-0.82366335,74.0,6,-0.04581519
-4.968495,-14.901108,-0.2741773,93.0,7,-0.04581058
-1.3861787,-4.138051,-1.1693444,33.0,0,-0.04578754
-18.535788,-55.30139,1.0180687,13.0,8,-0.045785237
-1.6203437,-4.8314853,-1.176494,30.0,1,-0.04578293
-15.826982,-47.165047,2.6072729,8.0,9,-0.04578063
-1.9992619,-5.9578815,-1.2215593,28.0,2,-0.045778323
-2.545276,-7.576254,-1.2658678,36.0,3,-0.045773715
-17.078316,-50.80586,6.5811887,13.0,11,-0.045771413
-3.2103727,-9.544943,-1.2364866,46.0,4,-0.045769107
-16.568186,-49.23136,8.227202,14.0,12,-0.045766804
-4.9511123,-14.711931,-1.3580607,6.0,5,-0.0457645
-17.219358,-51.136765,10.488389,34.0,13,-0.045762196
-5.0493474,-14.98653,-0.8287923,100.0,6,-0.04575989
-5.014088,-14.864726,-0.27382827,97.0,7,-0.045755282
-1.4148753,-4.175269,-1.1812501,31.0,0,-0.045732245
-17.661505,-52.088863,0.9600569,11.0,8,-0.04572994
-1.6246773,-4.788891,-1.167496,30.0,1,-0.045727637
-16.02234,-47.200294,2.612297,8.0,9,-0.04572533
-2.0194156,-5.949007,-1.2211776,20.0,2,-0.04572303
-17.765757,-52.306267,4.83296,19.0,10,-0.045720723
-2.5697992,-7.5617123,-1.2649293,33.0,3,-0.04571842
-17.545696,-51.59919,6.6918464,26.0,11,-0.045716114
-3.207227,-9.4265585,-1.2225933,37.0,4,-0.045713812
-16.925816,-49.719273,8.31856,14.0,12,-0.045711506
-5.060864,-14.866195,-1.3739231,6.0,5,-0.045709204
-17.400282,-51.083782,10.489916,34.0,13,-0.045706898
-5.0646524,-14.843348,-0.27375844,93.0,7,-0.045699988
-1.428188,-4.1666503,-1.180215,31.0,0,-0.045676947
-17.897722,-52.185783,0.96298885,11.0,8,-0.045674644
-1.6578288,-4.831115,-1.1791934,31.0,1,-0.04567234
-16.269375,-47.383984,2.6255906,17.0,9,-0.045670036
-2.0573833,-5.992057,-1.2314813,22.0,2,-0.04566773
-17.940472,-52.221317,4.8308682,19.0,10,-0.045665428
-2.5756304,-7.4929166,-1.2549174,27.0,3,-0.045663122
-3.2756388,-9.518543,-1.235999,26.0,4,-0.045658514
-5.1795382,-15.042474,-1.3918772,6.0,5,-0.04565391
-17.604073,-51.096977,10.50518,34.0,13,-0.045651603
-5.1183934,-14.831248,-0.27386317,82.0,7,-0.045644693
-1.430701,-4.1269593,-1.1703798,31.0,0,-0.045621652
-1.6766,-4.8308215,-1.1805431,33.0,1,-0.045617044
-16.447779,-47.364643,2.627684,17.0,9,-0.045614738
-2.065406,-5.947747,-1.223849,28.0,2,-0.045612436
-19.775742,-56.916126,5.271528,23.0,10,-0.045610134
-2.5913916,-7.4540267,-1.2499115,28.0,3,-0.045607828
-3.336249,-9.585793,-1.2462361,37.0,4,-0.04560322
-18.041677,-51.808643,8.688997,15.0,12,-0.045600917
-5.3021245,-15.225628,-1.4105284,6.0,5,-0.04559861
-17.828838,-51.168697,10.532657,34.0,13,-0.04559631
-5.178039,-14.835948,-0.274282,82.0,7,-0.045589395
-1.4789727,-4.218562,-1.1978146,30.0,0,-0.045566354
-18.010073,-51.342525,0.9497251,11.0,8,-0.04556405
-1.7044232,-4.856199,-1.1881914,27.0,1,-0.04556175
-16.64676,-47.403046,2.633022,8.0,9,-0.045559444
-2.108272,-6.003481,-1.236824,28.0,2,-0.04555714
-19.877876,-56.57231,5.246078,23.0,10,-0.045554835
-2.6246014,-7.465435,-1.253353,36.0,3,-0.045552533
-3.4276867,-9.738869,-1.267685,43.0,4,-0.045547925
-18.2749,-51.894413,8.714026,16.0,12,-0.04554562
-5.4234037,-15.400594,-1.4284827,6.0,5,-0.045543317
-17.992985,-51.06542,10.524261,34.0,13,-0.04554101
-5.249096,-14.872469,-0.27529427,97.0,7,-0.0455341
-1.4969162,-4.222478,-1.2004027,31.0,0,-0.04551106
-18.136377,-51.13045,0.9469676,22.0,8,-0.045508757
-1.7285342,-4.8704214,-1.1931404,33.0,1,-0.04550645
-16.968521,-47.785065,2.6575155,17.0,9,-0.04550415
-2.1476104,-6.047887,-1.2475092,33.0,2,-0.045501843
-20.048542,-56.427483,5.239106,22.0,10,-0.04549954
-2.6698334,-7.5102053,-1.2624264,30.0,3,-0.045497235
-18.297684,-51.44269,6.704033,13.0,11,-0.045494933
-3.4317088,-9.642686,-1.2567167,39.0,4,-0.045492627
-17.103481,-48.032166,8.07546,40.0,12,-0.045490324
-5.5499787,-15.586156,-1.4474826,4.0,5,-0.04548802
-18.26997,-51.279705,10.581504,34.0,13,-0.045485716
-5.3224864,-14.914322,-0.2764112,97.0,7,-0.045478802
-1.5305507,-4.2699647,-1.2154143,30.0,0,-0.045455765
-18.396423,-51.294594,0.95119107,11.0,8,-0.04545346
-1.7488155,-4.8735285,-1.1953899,30.0,1,-0.045451157
-16.995346,-47.361946,2.6371043,17.0,9,-0.04544885
-2.1740158,-6.0551353,-1.2505622,26.0,2,-0.04544655
-2.754831,-7.6644273,-1.2899587,27.0,3,-0.04544194
-17.723413,-49.28265,6.430558,12.0,11,-0.045439634
-3.4670258,-9.640593,-1.2579355,33.0,4,-0.045437332
-5.6725163,-15.756022,-1.465088,6.0,5,-0.045432724
-1.537465,-4.244886,-1.2097203,30.0,0,-0.045400467
-18.597765,-51.31979,0.9527967,22.0,8,-0.045398165
-1.7948595,-4.950145,-1.2156355,40.0,1,-0.04539586
-16.935816,-46.708244,2.6038187,25.0,9,-0.045393556
-2.1981003,-6.0589666,-1.252852,26.0,2,-0.04539125
-20.402248,-56.207306,5.2314363,22.0,10,-0.04538895
-2.7573054,-7.592121,-1.2793212,45.0,3,-0.045386642
-17.732168,-48.798214,6.3749857,12.0,11,-0.04538434
-3.5349083,-9.727925,-1.2708536,46.0,4,-0.045382034
-18.237701,-50.162163,8.453719,15.0,12,-0.04537973
-5.808511,-15.967423,-1.4865284,4.0,5,-0.045377426
-18.836147,-51.751892,10.705149,35.0,13,-0.045375124
-18.333017,-50.34222,-2.8078244,19.0,6,-0.04537282
-1.5568442,-4.254277,-1.2138613,31.0,0,-0.045345172
-17.686342,-48.30408,0.8978914,19.0,8,-0.045342866
-1.8152866,-4.9551444,-1.2183349,45.0,1,-0.045340564
-17.210104,-46.952633,2.6207757,25.0,9,-0.04533826
-2.2398016,-6.11063,-1.2650636,30.0,2,-0.045335956
-2.7906318,-7.60519,-1.2830757,30.0,3,-0.045331348
-17.822737,-48.54535,6.349637,24.0,11,-0.045329046
-3.5626826,-9.698758,-1.2686601,41.0,4,-0.04532674
-18.157835,-49.404755,8.336707,14.0,12,-0.045324437
-5.9590282,-16.213625,-1.5112805,4.0,5,-0.04532213
-19.004944,-51.681778,10.703622,35.0,13,-0.04531983
-1.5629716,-4.2252626,-1.207132,32.0,0,-0.045289874
-17.645231,-47.675686,0.88735014,28.0,8,-0.04528757
-1.8379862,-4.963397,-1.2219341,46.0,1,-0.04528527
-17.353765,-46.83796,2.6177402,8.0,9,-0.045282964
-2.273395,-6.1359124,-1.2719328,34.0,2,-0.04528066
-2.843953,-7.6676335,-1.2952776,36.0,3,-0.045276053
-17.888489,-48.20368,6.313076,11.0,11,-0.045273747
-3.61379,-9.732786,-1.2747533,39.0,4,-0.045271445
-18.39759,-49.522545,8.367368,14.0,12,-0.04526914
-6.1272945,-16.493422,-1.5393447,4.0,5,-0.045266837
-19.103157,-51.39429,10.657827,34.0,13,-0.04526453
-1.5973318,-4.2722573,-1.2221435,30.0,0,-0.04523458
-17.64829,-47.17741,0.8792173,18.0,8,-0.045232277
-1.847786,-4.936875,-1.2169852,39.0,1,-0.04522997
-17.547983,-46.859398,2.6223457,8.0,9,-0.04522767
-2.2837844,-6.098522,-1.265827,28.0,2,-0.045225363
-2.8748603,-7.668758,-1.2971548,36.0,3,-0.045220755
-18.26439,-48.694817,6.3857102,12.0,11,-0.045218453
-3.64286,-9.707103,-1.2730472,33.0,4,-0.045216147
-18.58145,-49.487614,8.372374,14.0,12,-0.045213845
-6.2912827,-16.755451,-1.5658401,4.0,5,-0.04521154
-19.365288,-51.547836,10.703622,35.0,13,-0.045209236
-1.6026746,-4.241356,-1.2148967,27.0,0,-0.045179285
-17.82701,-47.152927,0.8799155,18.0,8,-0.04517698
-1.8760397,-4.959558,-1.2241837,28.0,1,-0.045174677
-17.637209,-46.601727,2.6113553,25.0,9,-0.04517237
-2.3231256,-6.138253,-1.275749,28.0,2,-0.04517007
-2.91351,-7.6900783,-1.3024734,30.0,3,-0.04516546
-18.339964,-48.382034,6.3530493,12.0,11,-0.045163155
-3.68165,-9.70732,-1.2747533,43.0,4,-0.045160852
-18.808752,-49.566505,8.396777,14.0,12,-0.045158546
-6.4812107,-17.079865,-1.5982621,4.0,5,-0.045156244
-19.177864,-50.486088,-2.8303287,40.0,6,-0.045151636
-1.6216565,-4.244476,-1.2174848,30.0,0,-0.045116425
-19.520575,-51.06584,0.9542627,11.0,8,-0.045114122
-1.9095194,-4.992692,-1.2340814,39.0,1,-0.045111816
-17.847155,-46.63936,2.617112,8.0,9,-0.045109514
-2.3554308,-6.155367,-1.2810917,28.0,2,-0.04510721
-22.072535,-57.651257,5.400867,26.0,10,-0.045104906
-2.9515688,-7.705173,-1.3068537,42.0,3,-0.0451026
-18.494444,-48.255173,6.3452497,24.0,11,-0.045100298
-3.7264428,-9.717856,-1.277922,41.0,4,-0.04509799
-19.399994,-50.565086,8.577929,15.0,12,-0.04509569
-6.6924024,-17.434305,-1.6338215,2.0,5,-0.045093384
-23.31065,-60.63142,-1.133848,39.0,7,-0.045084167
-1.628153,-4.2150774,-1.2107556,28.0,0,-0.04506113
-19.763552,-51.16528,0.9574041,11.0,8,-0.045058824
-1.9213158,-4.9714546,-1.2304822,34.0,1,-0.045056522
-18.018494,-46.599133,2.6183681,8.0,9,-0.045054216
-2.387184,-6.1704965,-1.2860527,22.0,2,-0.045051914
-22.266428,-57.525375,5.396683,26.0,10,-0.045049608
-2.9790757,-7.6924615,-1.3065407,39.0,3,-0.045047306
-20.029158,-51.718567,6.809816,13.0,11,-0.045045
-3.781143,-9.758469,-1.2849904,39.0,4,-0.045042697
-19.390728,-50.018185,8.496583,15.0,12,-0.04504039
-7.1797504,-18.510506,-1.7370138,9.0,5,-0.04503809
-26.904463,-69.2921,-3.895575,53.0,6,-0.04503348
-10.089214,-25.957783,7.4622707,28.0,15,-0.045026567
-1.6407499,-4.2039695,-1.2092026,30.0,0,-0.045005832
-19.630909,-50.272907,0.94204605,11.0,8,-0.04500353
-1.9409426,-4.96801,-1.2313821,39.0,1,-0.045001224
-20.15941,-51.599747,2.903285,11.0,9,-0.04499892
-2.3972733,-6.1328692,-1.2799468,22.0,2,-0.044996615
-21.59773,-55.224373,5.187858,22.0,10,-0.044994313
-3.0080695,-7.6875353,-1.3074795,45.0,3,-0.044992007
-21.826576,-55.752144,7.351403,16.0,11,-0.044989705
-3.8419576,-9.813604,-1.2940087,41.0,4,-0.0449874
-19.772697,-50.479916,8.586689,15.0,12,-0.044985097
-7.3555484,-18.769152,-1.7636836,16.0,5,-0.04498279
-22.845612,-58.2353,-3.2784293,33.0,6,-0.044978183
-10.126799,-25.787546,7.423448,11.0,15,-0.044971272
-1.6638899,-4.22187,-1.215932,31.0,0,-0.044950537
-19.919281,-50.51634,0.94784015,11.0,8,-0.04494823
-1.9695644,-4.992363,-1.2390305,34.0,1,-0.04494593
-20.23366,-51.28737,2.8894684,10.0,9,-0.044943623
-2.4421053,-6.1869745,-1.2929219,22.0,2,-0.04494132
-3.0190277,-7.6407743,-1.3012221,39.0,3,-0.044936713
-3.8701015,-9.789734,-1.2925464,41.0,4,-0.044932105
-20.079475,-50.766758,8.64676,15.0,12,-0.044929802
-7.5049915,-18.965117,-1.7844267,28.0,5,-0.044927496
-10.323361,-26.07384,5.4510317,18.0,13,-0.044925194
-23.03861,-58.159218,-3.2784293,33.0,6,-0.04492289
-23.123287,-58.343258,-1.0954527,36.0,7,-0.04491828
-10.475737,-26.418274,7.614974,34.0,15,-0.044915978
-1.6750237,-4.209149,-1.2138613,30.0,0,-0.04489524
-20.134033,-50.56891,0.95007414,11.0,8,-0.044892937
-1.9969267,-5.0129595,-1.2457789,33.0,1,-0.04489063
-20.353403,-51.068,2.8810947,10.0,9,-0.04488833
-2.4553394,-6.160605,-1.2891057,20.0,2,-0.044886023
-19.733362,-49.487167,4.661089,18.0,10,-0.04488372
-3.072897,-7.7022758,-1.313424,36.0,3,-0.04488142
-3.9013045,-9.768791,-1.2915714,30.0,4,-0.04487681
-7.5681887,-18.931404,-1.7837294,33.0,5,-0.044872202
-10.40394,-26.024878,5.447979,18.0,13,-0.044869896
-23.285181,-58.15823,-1.093498,35.0,7,-0.044862986
-10.57651,-26.403065,7.621186,34.0,15,-0.04486068
-1.6990902,-4.224489,-1.220073,31.0,0,-0.044839945
-20.368633,-50.64303,0.9527967,11.0,8,-0.04483764
-2.016595,-5.0113826,-1.2471286,25.0,1,-0.044835337
-20.938816,-52.00824,2.9382455,11.0,9,-0.044833034
-2.5402536,-6.306355,-1.3215431,36.0,2,-0.04483073
-20.081432,-49.82845,4.7001348,18.0,10,-0.044828426
-3.1084926,-7.709282,-1.3165526,36.0,3,-0.04482612
-19.984629,-49.563293,6.56169,12.0,11,-0.044823818
-3.9346387,-9.753272,-1.2913277,39.0,4,-0.044821512
-7.620049,-18.86977,-1.7804176,28.0,5,-0.044816904
-10.482341,-25.944704,5.4392014,53.0,13,-0.0448146
-23.503046,-58.113667,-1.0941961,35.0,7,-0.044807687
-10.654843,-26.33196,7.6113505,28.0,15,-0.044805385
-1.6811059,-4.1379924,-1.1967793,25.0,0,-0.04478465
-20.437395,-50.280895,0.94738644,22.0,8,-0.044782344
-2.0290763,-4.9895163,-1.2435294,21.0,1,-0.044780042
-20.74705,-51.017174,2.8863282,10.0,9,-0.044777736
-2.5548525,-6.279264,-1.317727,27.0,2,-0.044775434
-20.05242,-49.259808,4.653071,18.0,10,-0.044773128
-3.1338944,-7.694726,-1.3159269,36.0,3,-0.044770826
-20.235067,-49.658836,6.5841136,13.0,11,-0.04476852
-3.9673626,-9.731432,-1.2903527,26.0,4,-0.044766217
-23.142536,-56.765675,9.709263,23.0,12,-0.04476391
-7.7084455,-18.8984,-1.7856468,16.0,5,-0.04476161
-9.130044,-22.372494,4.6969543,14.0,13,-0.044759303
-10.538395,-25.784954,7.463824,16.0,15,-0.044750087
-1.714607,-4.178567,-1.2102379,30.0,0,-0.044729352
-20.721687,-50.499596,0.9527967,11.0,8,-0.04472705
-2.0330296,-4.9521136,-1.2358811,27.0,1,-0.044724744
-20.632847,-50.233154,2.8460295,21.0,9,-0.04472244
-2.5737705,-6.263045,-1.3162005,34.0,2,-0.044720136
-20.263649,-49.285328,4.662135,18.0,10,-0.044717833
-3.163901,-7.695253,-1.3178041,36.0,3,-0.044715527
-20.695663,-50.31111,6.6796594,13.0,11,-0.044713225
-4.020008,-9.767788,-1.2969337,11.0,4,-0.04471092
-23.104374,-56.111004,9.611022,21.0,12,-0.044708617
-7.962579,-19.328241,-1.8288761,15.0,5,-0.04470631
-9.175019,-22.2713,4.6820717,28.0,13,-0.04470401
-9.553639,-23.14446,6.7091074,10.0,15,-0.044694792
-1.7395437,-4.1996307,-1.2180026,28.0,0,-0.044674058
-20.456102,-49.36104,0.9326566,10.0,8,-0.04467175
-2.0159695,-4.8621807,-1.2151856,27.0,1,-0.04466945
-20.95041,-50.503967,2.8654985,21.0,9,-0.044667143
-2.614084,-6.301624,-1.3261225,34.0,2,-0.04466484
-20.42392,-49.210495,4.6614375,18.0,10,-0.044662535
-3.2233164,-7.762609,-1.3312575,50.0,3,-0.044660233
-20.738638,-49.91959,6.6372485,13.0,11,-0.044657927
-4.022081,-9.676706,-1.2866967,1.0,4,-0.044655625
-23.189354,-55.763718,9.565343,21.0,12,-0.04465332
-8.39966,-20.188818,-1.9130685,27.0,5,-0.044651017
-9.219522,-22.15938,4.6652803,49.0,13,-0.044648714
-10.566797,-25.37262,6.3454194,18.0,14,-0.044644106
-22.370564,-53.689003,-1.0152414,28.0,7,-0.0446418
-9.603891,-23.037863,6.687885,41.0,15,-0.044639498
-1.7683493,-4.225304,-1.22732,31.0,0,-0.04461876
-20.502443,-48.988655,0.92696714,21.0,8,-0.044616457
-2.0637884,-4.928812,-1.2336316,21.0,1,-0.04461415
-21.117317,-50.408424,2.8642426,31.0,9,-0.04461185
-2.6272976,-6.268462,-1.3211615,38.0,2,-0.044609543
-20.785976,-49.56893,4.702575,18.0,10,-0.04460724
-3.255567,-7.75985,-1.3328218,56.0,3,-0.044604935
-21.25221,-50.655987,6.7449813,13.0,11,-0.044602633
-4.433067,-10.561328,-1.4063724,9.0,4,-0.04460033
-23.38846,-55.693356,9.567221,21.0,12,-0.044598024
-8.465451,-20.148355,-1.9120227,33.0,5,-0.044595722
-10.812368,-25.721617,5.4235554,26.0,13,-0.044593416
-10.648385,-25.306776,6.3386707,20.0,14,-0.044588808
-22.47563,-53.41521,-1.0115415,56.0,7,-0.044586506
-9.681249,-22.997076,6.685814,25.0,15,-0.0445842
-1.7845913,-4.222665,-1.2283553,31.0,0,-0.044563465
-22.536116,-53.298546,1.0100754,12.0,8,-0.04456116
-2.0415998,-4.8260927,-1.2097868,22.0,1,-0.044558857
-21.497799,-50.818172,2.891771,10.0,9,-0.04455655
-2.6614056,-6.2881813,-1.3272674,25.0,2,-0.04455425
-21.01326,-49.624504,4.714777,18.0,10,-0.044551946
-3.2810934,-7.7448015,-1.3321961,56.0,3,-0.04454964
-23.016537,-54.30259,7.241721,15.0,11,-0.044547338
-4.5073967,-10.629076,-1.4175844,11.0,4,-0.044545032
-24.071663,-56.764374,9.765579,24.0,12,-0.04454273
-8.563743,-20.184711,-1.9182978,30.0,5,-0.044540424
-10.8714075,-25.61143,5.4082904,44.0,13,-0.04453812
-11.052148,-26.011986,6.52493,17.0,14,-0.044533513
-22.705734,-53.4395,-1.0134962,28.0,7,-0.044531208
-9.715367,-22.85469,6.6542377,10.0,15,-0.044528905
-1.7978045,-4.2128553,-1.22732,31.0,0,-0.04450817
-22.784946,-53.392727,1.0132867,12.0,8,-0.044505864
-2.1157465,-4.9555054,-1.2439793,27.0,1,-0.044503562
-2.689512,-6.2932944,-1.3303204,23.0,2,-0.044498954
-21.159718,-49.488567,4.7088504,18.0,10,-0.044496648
-3.3090873,-7.739328,-1.3331347,50.0,3,-0.044494346
-23.098106,-53.996002,7.2110095,15.0,11,-0.04449204
-4.5746427,-10.688895,-1.4275776,11.0,4,-0.044489738
-23.74715,-55.459713,9.555331,21.0,12,-0.04448743
-8.713391,-20.33967,-1.9359034,19.0,5,-0.04448513
-9.710051,-22.666172,4.7931223,7.0,13,-0.044482823
-32.092945,-74.87846,-4.269463,63.0,6,-0.04448052
-11.2389555,-26.209816,6.5838675,27.0,14,-0.044478215
-22.860605,-53.286407,-1.0121,28.0,7,-0.044475913
-11.149099,-25.975233,7.574081,16.0,15,-0.044473607
-1.8148209,-4.213968,-1.2293905,27.0,0,-0.044452872
-22.956936,-53.279816,1.0126585,12.0,8,-0.04445057
-2.151546,-4.991039,-1.254777,27.0,1,-0.044448264
-23.98766,-55.618553,3.1743853,14.0,9,-0.04444596
-2.7531288,-6.383492,-1.3513094,25.0,2,-0.044443656
-21.12006,-48.94615,4.663878,18.0,10,-0.044441354
-3.3392153,-7.734983,-1.3343862,43.0,3,-0.044439048
-23.445442,-54.283157,7.260245,15.0,11,-0.044436745
-4.6528707,-10.767618,-1.4402521,11.0,4,-0.04443444
-24.03623,-55.597694,9.593501,21.0,12,-0.044432137
-8.902979,-20.583427,-1.9620501,20.0,5,-0.04442983
-9.768847,-22.585289,4.7832003,58.0,13,-0.04442753
-9.539107,-22.043587,-1.2587845,18.0,6,-0.044425223
-11.0462265,-25.514109,6.4187536,4.0,14,-0.04442292
-23.02103,-53.14756,-1.010983,28.0,7,-0.044420615
-9.759462,-22.520424,6.5765924,10.0,15,-0.044418313
-1.8441248,-4.239175,-1.238708,27.0,0,-0.044397578
-23.123627,-53.155346,1.0118207,12.0,8,-0.04439527
-2.1876197,-5.0263824,-1.2655747,27.0,1,-0.04439297
-24.039728,-55.20853,3.1557539,13.0,9,-0.044390664
-2.785917,-6.3949566,-1.3558888,25.0,2,-0.04438836
-23.732067,-54.45004,5.196574,22.0,10,-0.044386055
-3.3857026,-7.7643394,-1.3415821,40.0,3,-0.044383753
-23.637955,-54.208275,7.26122,15.0,11,-0.044381447
-4.718212,-10.814992,-1.4487829,9.0,4,-0.044379145
-24.195381,-55.433792,9.579735,21.0,12,-0.04437684
-9.021018,-20.658129,-1.97216,23.0,5,-0.044374537
-9.763531,-22.347837,4.740459,49.0,13,-0.04437223
-9.567045,-21.88769,-1.2518762,31.0,6,-0.04436993
-11.156841,-25.512732,6.4286513,29.0,14,-0.044367626
-22.954823,-52.491585,-1.0000229,27.0,7,-0.04436532
-9.832591,-22.473831,6.572969,25.0,15,-0.044363018
-1.8495898,-4.211486,-1.2324963,28.0,0,-0.04434228
-23.398745,-53.253315,1.0153112,13.0,8,-0.044339977
-2.2083805,-5.0236826,-1.2669244,30.0,1,-0.04433767
-24.298203,-55.248028,3.163081,13.0,9,-0.04433537
-2.8200777,-6.41215,-1.361613,23.0,2,-0.044333063
-23.888288,-54.29027,5.189253,22.0,10,-0.04433076
-3.418356,-7.765129,-1.3437722,43.0,3,-0.044328455
-23.836481,-54.121273,7.26122,15.0,11,-0.044326153
-4.7834325,-10.855757,-1.4565825,11.0,4,-0.044323847
-24.34581,-55.225437,9.559086,21.0,12,-0.044321544
-9.141298,-20.735897,-1.9826188,25.0,5,-0.044319242
-9.823255,-22.272306,4.7316813,35.0,13,-0.044316936
-9.620007,-21.801168,-1.2488407,35.0,6,-0.044314634
-11.035697,-24.997639,6.308527,2.0,14,-0.044312328
-9.738733,-22.049395,-0.42074263,5.0,7,-0.044310026
-10.108541,-22.875864,6.701343,10.0,15,-0.04430772
-1.8494025,-4.171449,-1.2226613,25.0,0,-0.044286985
-23.552061,-53.098194,1.0139151,25.0,8,-0.04428468
-2.2053514,-4.9696317,-1.255227,25.0,1,-0.044282377
-24.075953,-54.228252,3.1094887,12.0,9,-0.04428007
-2.8081865,-6.32511,-1.3452035,21.0,2,-0.04427777
-24.1925,-54.465115,5.214005,22.0,10,-0.044275466
-3.451858,-7.76759,-1.3462751,50.0,3,-0.04427316
-24.242998,-54.52749,7.327029,16.0,11,-0.04427086
-4.8648634,-10.936936,-1.4697444,10.0,4,-0.044268552
-9.281668,-20.856766,-1.9972609,23.0,5,-0.044263944
-9.896952,-22.228914,4.729774,14.0,13,-0.04426164
-9.696047,-21.767456,-1.2488407,52.0,6,-0.044259336
-11.660706,-26.165794,6.613561,25.0,14,-0.044257034
-9.7676,-21.907509,-0.41868323,35.0,7,-0.044254728
-10.091532,-22.623432,6.637674,35.0,15,-0.044252425
-1.8797357,-4.2002344,-1.233014,25.0,0,-0.044231687
-23.766676,-53.081364,1.0151716,12.0,8,-0.044229385
-2.3166907,-5.1717615,-1.3083154,32.0,1,-0.044227082
-23.838419,-53.216694,3.0560014,24.0,9,-0.044224776
-2.892876,-6.455011,-1.3749697,33.0,2,-0.044222474
-3.4708652,-7.7374706,-1.3431464,53.0,3,-0.044217866
-24.490082,-54.5693,7.344091,16.0,11,-0.04421556
-4.9355354,-10.992325,-1.479494,10.0,4,-0.044213258
-24.654799,-54.910675,9.53343,20.0,12,-0.04421095
-9.377273,-20.87513,-2.0021417,24.0,5,-0.04420865
-10.029207,-22.316002,4.755724,14.0,13,-0.044206344
-9.776885,-21.744408,-1.2494687,49.0,6,-0.04420404
-11.540918,-25.655746,6.4947867,29.0,14,-0.044201735
-9.818866,-21.827581,-0.41777572,45.0,7,-0.044199433
-10.153019,-22.559896,6.628874,30.0,15,-0.044197127
-1.9238113,-4.258788,-1.2521666,30.0,0,-0.044176392
-9.931343,-21.985258,0.42109165,34.0,8,-0.04417409
-2.3378408,-5.1729293,-1.3105649,32.0,1,-0.044171784
-24.192722,-53.50623,3.077459,12.0,9,-0.04416948
-2.9283364,-6.4734936,-1.3810756,29.0,2,-0.044167176
-3.4997633,-7.733117,-1.344398,46.0,3,-0.044162568
-24.575928,-54.27802,7.3158174,16.0,11,-0.044160265
-5.017829,-11.077158,-1.4931433,8.0,4,-0.04415796
-25.095835,-55.374847,9.6291685,22.0,12,-0.044155657
-9.482997,-20.914852,-2.0091143,24.0,5,-0.04415335
-9.867088,-21.751883,-1.2517716,35.0,6,-0.044148743
-9.98303,-21.997265,5.576987,21.0,14,-0.04414644
-9.895823,-21.794994,-0.4178106,50.0,7,-0.044144135
-10.2309065,-22.522556,6.628356,30.0,15,-0.044141833
-1.9451336,-4.268206,-1.2568253,27.0,0,-0.044121098
-9.97484,-21.877678,0.41969547,52.0,8,-0.04411879
-2.2863314,-5.0122595,-1.2718732,27.0,1,-0.04411649
-24.400076,-53.466877,3.080076,24.0,9,-0.044114184
-2.9400065,-6.4423146,-1.3764962,38.0,2,-0.04411188
-24.551804,-53.7745,5.1718216,22.0,10,-0.044109575
-3.5349429,-7.7388215,-1.3475267,46.0,3,-0.044107273
-9.904446,-21.673151,2.9258394,60.0,11,-0.044104967
-5.089483,-11.131789,-1.5028929,8.0,4,-0.044102665
-9.662065,-21.11352,-2.031426,21.0,5,-0.044098057
-9.966239,-21.768152,-1.2547023,35.0,6,-0.04409345
-10.06787,-21.98,5.5814853,35.0,14,-0.044091143
-9.986003,-21.791224,-0.41840398,45.0,7,-0.04408884
-10.895585,-23.76514,7.0051966,36.0,15,-0.04408654
-1.916348,-4.1645255,-1.2283553,22.0,0,-0.0440658
-10.040281,-21.81911,0.41924173,42.0,8,-0.044063497
-2.345376,-5.0945263,-1.2948182,32.0,1,-0.04406119
-10.120879,-21.974062,1.267891,42.0,9,-0.04405889
-2.9340198,-6.3673058,-1.3627579,27.0,2,-0.044056583
-24.645308,-53.45979,5.150207,22.0,10,-0.04405428
-3.5715559,-7.743752,-1.3506554,46.0,3,-0.044051975
-9.990845,-21.66188,2.929008,28.0,11,-0.044049673
-5.1732187,-11.211289,-1.5160547,10.0,4,-0.044047367
-25.634163,-55.528297,9.686736,23.0,12,-0.044045065
-9.785833,-21.18819,-2.0418847,24.0,5,-0.04404276
-10.108281,-21.856281,5.55944,22.0,14,-0.04403585
-10.073761,-21.781643,-0.41889265,35.0,7,-0.044033546
-10.991456,-23.755014,7.0134788,10.0,15,-0.04403124
-1.8739153,-4.0351615,-1.1921207,18.0,0,-0.044010505
-10.124397,-21.791231,0.41941625,55.0,8,-0.0440082
-2.3804598,-5.1212397,-1.3038163,22.0,1,-0.044005897
-10.173108,-21.886076,1.2648555,49.0,9,-0.04400359
-2.9868586,-6.4228926,-1.3768778,24.0,2,-0.04400129
-10.358472,-22.264526,2.148389,12.0,10,-0.043998983
-3.621072,-7.7795916,-1.3591028,59.0,3,-0.04399668
-10.091966,-21.671904,2.9353452,28.0,11,-0.04399438
-5.2528377,-11.275025,-1.5272667,8.0,4,-0.043992072
-25.864529,-55.51727,9.700502,23.0,12,-0.04398977
-9.897606,-21.23517,-2.0497289,30.0,5,-0.043987464
-9.80714,-21.031477,4.510725,33.0,13,-0.043985162
-10.238086,-21.935648,5.588684,1.0,14,-0.043980554
-10.17595,-21.802519,-0.4199747,10.0,7,-0.043978248
-10.53077,-22.552471,6.6692495,20.0,15,-0.043975946
-1.9593116,-4.180783,-1.2371551,18.0,0,-0.043955207
-10.209334,-21.784697,0.4199398,49.0,8,-0.043952905
-2.3726113,-5.0603848,-1.2903192,17.0,1,-0.043950602
-10.244354,-21.83958,1.2642275,52.0,9,-0.043948296
-3.0367842,-6.4710774,-1.3894712,27.0,2,-0.043945994
-10.360766,-22.06772,2.1328754,28.0,10,-0.04394369
-3.648529,-7.771116,-1.3597286,37.0,3,-0.043941386
-10.211035,-21.73894,2.9489946,20.0,11,-0.04393908
-5.3484535,-11.38151,-1.5440848,6.0,4,-0.043936778
-25.967396,-55.233578,9.666713,22.0,12,-0.043934472
-10.007287,-21.276213,-2.0570498,31.0,5,-0.04393217
-9.888523,-21.023712,4.5160675,46.0,13,-0.043929864
-10.259309,-21.792261,5.56079,12.0,14,-0.043925256
-27.806147,-59.037556,-1.1390837,40.0,7,-0.043922953
-10.60366,-22.503344,6.665626,10.0,15,-0.043920647
-1.9905022,-4.21094,-1.2480254,22.0,0,-0.043899912
-10.314382,-21.81039,0.42112657,44.0,8,-0.04389761
-2.3869274,-5.0450253,-1.2885196,16.0,1,-0.043895304
-10.325262,-21.823544,1.2652742,54.0,9,-0.043893002
-3.0607467,-6.466295,-1.390616,24.0,2,-0.043890696
-10.370788,-21.899988,2.1199763,53.0,10,-0.043888394
-3.6595643,-7.7244153,-1.353784,34.0,3,-0.043886088
-10.368478,-21.875368,2.9723935,31.0,11,-0.043883786
-5.4459867,-11.484739,-1.5606589,9.0,4,-0.04388148
-10.36131,-21.850393,3.8301418,24.0,12,-0.043879177
-10.108531,-21.307714,-2.0633252,31.0,5,-0.04387687
-10.020776,-21.11322,4.542781,46.0,13,-0.04387457
-9.918887,-20.879728,5.3367386,31.0,14,-0.04386996
-9.805858,-20.632504,6.121071,9.0,15,-0.043865353
-1.9935457,-4.1795554,-1.2407786,25.0,0,-0.043844618
-26.288172,-55.114296,1.0658534,33.0,8,-0.043842312
-2.4783385,-5.1936116,-1.328561,21.0,1,-0.04384001
-10.416006,-21.818008,1.2670536,49.0,9,-0.043837704
-3.118837,-6.5299764,-1.406644,18.0,2,-0.0438354
-10.442876,-21.854666,2.1191046,61.0,10,-0.043833096
-3.693676,-7.73006,-1.3569127,25.0,3,-0.043830793
-10.302263,-21.550728,2.932908,31.0,11,-0.043828487
-5.5285783,-11.559739,-1.5733334,6.0,4,-0.043826185
-10.33606,-21.602043,3.7929103,50.0,12,-0.04382388
-10.175965,-21.257921,-2.0619304,18.0,5,-0.043821577
-11.041828,-23.066738,4.9709563,7.0,13,-0.04381927
