x,y,z,intensity,ring,time
0.2711686,-36.9912,4.542071,6.0,11,-0.05204792
0.046905376,-6.554607,-0.8048252,43.0,4,-0.052045614
0.26056042,-37.321857,5.9113464,12.0,12,-0.05204331
0.059170645,-8.475418,-0.74152106,37.0,5,-0.052041005
0.24862587,-36.5255,7.1000032,26.0,13,-0.052038703
0.082815826,-12.486589,-0.6544089,29.0,6,-0.052036397
0.23910384,-37.02529,8.54814,18.0,14,-0.052034095
0.11697533,-18.616796,-0.3249638,24.0,7,-0.05203179
0.20516929,-33.58655,8.999657,15.0,15,-0.052029487
0.01781895,-3.926671,-0.90655273,36.0,1,-0.052004144
0.10998899,-25.207167,1.3210644,5.0,9,-0.052001838
0.019676987,-4.5095525,-0.8765766,33.0,2,-0.051999535
0.15922116,-38.010475,3.3255146,25.0,10,-0.05199723
0.02206068,-5.495454,-0.87040144,29.0,3,-0.051994927
0.09744875,-25.37922,3.1161995,3.0,11,-0.05199262
0.02392242,-6.52694,-0.8014129,43.0,4,-0.05199032
0.1294365,-37.079575,5.872864,19.0,12,-0.051988013
0.029781068,-8.531361,-0.7464017,40.0,5,-0.05198571
0.12197189,-36.78137,7.1496134,13.0,13,-0.051983405
0.04048983,-12.888248,-0.6754479,31.0,6,-0.051981103
0.10782802,-36.339947,8.389774,21.0,14,-0.051978797
0.052101042,-18.657087,-0.32566193,12.0,7,-0.051976494
0.08826089,-33.712627,9.033302,16.0,15,-0.05197419
0.0040676575,-3.8838372,-0.8966549,28.0,1,-0.051948845
0.0039714463,-4.5508223,-0.88459057,34.0,2,-0.051944237
0.026459921,-37.899227,3.315753,8.0,10,-0.051941935
0.0028635783,-5.4698176,-0.86633414,30.0,3,-0.05193963
0.001150342,-6.588522,-0.8089688,39.0,4,-0.05193502
-1.6178737e-06,-37.012638,5.862226,25.0,12,-0.05193272
-3.6961046e-07,-8.455702,-0.739778,39.0,5,-0.051930413
-0.0065890425,-37.77105,7.3419485,13.0,13,-0.05192811
-0.0044544125,-12.764482,-0.66895825,19.0,6,-0.051925804
-0.019079095,-36.43754,8.41227,38.0,14,-0.051923502
-0.0130349565,-18.671154,-0.32590625,8.0,7,-0.051921196
-0.032614887,-37.379383,10.0157795,9.0,15,-0.051918894
-0.0095281545,-3.8994176,-0.90025413,28.0,1,-0.05189355
-0.23070061,-88.12077,4.61823,56.0,9,-0.051891245
-0.012057953,-4.605779,-0.8952759,34.0,2,-0.051888943
-0.070751615,-25.337122,2.2167192,39.0,10,-0.051886637
-0.0162995,-5.493499,-0.8700886,30.0,3,-0.051884335
-0.15945567,-50.756577,6.2321553,11.0,11,-0.05188203
-0.02232862,-6.7333965,-0.8267617,46.0,4,-0.051879726
-0.12935503,-37.057842,5.8694215,19.0,12,-0.05187742
-0.029654596,-8.495498,-0.7432642,39.0,5,-0.05187512
-0.13624819,-37.173973,7.2259374,13.0,13,-0.051872812
-0.05032402,-13.105917,-0.68685716,26.0,6,-0.05187051
-0.15009163,-37.390175,8.632272,7.0,14,-0.051868204
-0.08174238,-19.514858,-0.34063607,20.0,7,-0.0518659
-0.15847932,-36.320396,9.732114,9.0,15,-0.051863596
-0.023312705,-3.928591,-0.9070026,27.0,1,-0.05133907
-0.028255107,-4.6253414,-0.8990921,34.0,2,-0.051334463
-0.035615105,-5.515137,-0.87353015,22.0,3,-0.051329855
-0.33657694,-50.74777,6.2311797,11.0,11,-0.051327553
-0.04576505,-6.723352,-0.825543,48.0,4,-0.051325247
-0.26443437,-37.876926,5.9992623,19.0,12,-0.051322944
-0.059949305,-8.586989,-0.7512825,39.0,5,-0.05132064
-0.26440823,-36.949467,7.1824327,13.0,13,-0.051318336
-0.09590966,-13.083693,-0.6857057,18.0,6,-0.05131603
-0.2936679,-39.129604,9.034035,16.0,14,-0.051313728
-0.15113655,-19.680422,-0.34353316,24.0,7,-0.051311422
-0.29279757,-37.279724,9.98938,19.0,15,-0.05130912
-0.03704485,-3.9304347,-0.9074526,26.0,1,-0.051283777
-0.044531886,-4.6389565,-0.9017634,33.0,2,-0.05127917
-0.054592002,-5.4873257,-0.86915,24.0,3,-0.05127456
-0.25535947,-25.22526,3.0974314,9.0,11,-0.051272254
-0.069335245,-6.7330766,-0.8267617,46.0,4,-0.051269952
-0.090027675,-8.596689,-0.752154,35.0,5,-0.051265344
-0.3944304,-37.04647,7.2015133,13.0,13,-0.051263038
-0.14350194,-13.261024,-0.69502157,35.0,6,-0.051260736
-0.3964431,-36.053413,8.324089,3.0,14,-0.05125843
-0.22092818,-19.777756,-0.3452435,28.0,7,-0.051256128
-1.0694218,-83.9324,1.4651644,63.0,8,-0.051230785
-0.051015723,-3.949767,-0.9119516,26.0,1,-0.05122848
-0.06049344,-4.621105,-0.8983288,34.0,2,-0.05122387
-0.07509937,-5.5878367,-0.8851063,31.0,3,-0.051219262
-0.34565413,-25.388962,3.1176617,21.0,11,-0.05121696
-0.09349551,-6.780431,-0.83261144,46.0,4,-0.051214654
-0.5111752,-36.608067,5.798713,12.0,12,-0.05121235
-0.12028476,-8.614253,-0.75372285,39.0,5,-0.051210046
-0.5269049,-37.26866,7.245018,13.0,13,-0.051207744
-0.19056436,-13.314363,-0.6978477,35.0,6,-0.051205438
-0.7217513,-49.820164,11.503097,6.0,14,-0.051203135
-0.2914011,-19.874838,-0.34695384,45.0,7,-0.051200833
-0.5356563,-36.104267,9.675174,18.0,15,-0.051198527
-0.06473837,-3.9456677,-0.91105175,22.0,1,-0.051173184
-1.1822463,-71.29634,3.7369971,153.0,9,-0.051170878
-0.07623326,-4.59731,-0.89374936,33.0,2,-0.051168576
-0.09457081,-5.585565,-0.8847934,26.0,3,-0.051163968
-0.90233564,-52.750084,6.4778438,12.0,11,-0.05116166
-0.11702525,-6.7721243,-0.8316365,43.0,4,-0.05115936
-0.15153587,-8.681511,-0.75964946,40.0,5,-0.05115475
-0.65602565,-37.21163,7.2343326,13.0,13,-0.05115245
-0.23849551,-13.395491,-0.70213926,33.0,6,-0.051150143
-0.8936273,-49.70433,11.477003,6.0,14,-0.05114784
-0.3604856,-19.857704,-0.3466746,41.0,7,-0.051145535
-0.658845,-35.94765,9.633762,9.0,15,-0.051143233
-0.6260423,-31.738993,0.5541139,18.0,8,-0.05112019
-0.077852406,-3.9122958,-0.90340346,21.0,1,-0.051117886
-0.09326559,-4.646087,-0.90328985,33.0,2,-0.051113278
-0.5093453,-25.15474,2.2012053,4.0,10,-0.051110975
-0.11362398,-5.5634766,-0.8813519,36.0,3,-0.051108673
-0.7496138,-36.39292,4.469437,24.0,11,-0.051106367
-0.14066304,-6.7716746,-0.8316365,46.0,4,-0.051104065
-0.7529592,-35.945946,5.694528,12.0,12,-0.05110176
-0.18338314,-8.754631,-0.7660989,34.0,5,-0.051099457
-0.28767893,-13.508395,-0.70810556,45.0,6,-0.05109485
-0.84298533,-39.261963,9.066427,4.0,14,-0.051092543
-0.43243763,-19.978275,-0.3488038,38.0,7,-0.05109024
-1.1578001,-53.06113,14.221072,28.0,15,-0.051087935
-1.8539779,-79.85431,1.3942378,63.0,8,-0.051064894
-0.092829615,-3.9684985,-0.9164506,22.0,1,-0.05106259
-0.11008377,-4.6712484,-0.90825087,31.0,2,-0.051057983
-0.5971523,-25.152807,2.2012053,4.0,10,-0.05105568
-0.13370413,-5.590693,-0.88573205,38.0,3,-0.051053375
-1.2131557,-50.359093,6.1851134,22.0,11,-0.051051073
-0.16545643,-6.8187704,-0.8374862,45.0,4,-0.051048767
-0.8794923,-35.986546,5.7014112,12.0,12,-0.051046465
-0.21433108,-8.769873,-0.7674935,35.0,5,-0.05104416
-0.9171485,-37.2611,7.245018,13.0,13,-0.051041856
-0.33651182,-13.575194,-0.7116644,48.0,6,-0.05103955
-0.9783776,-39.192543,9.05113,8.0,14,-0.05103725
-0.5026251,-19.99464,-0.34911796,46.0,7,-0.051034942
-0.92074114,-36.37478,9.749714,9.0,15,-0.05103264
-2.2785811,-85.30858,1.4895978,63.0,8,-0.0510096
-0.10657705,-3.964254,-0.91555077,20.0,1,-0.051007297
-0.12591098,-4.653173,-0.90481627,33.0,2,-0.05100269
-0.15403046,-5.619812,-0.8904251,29.0,3,-0.05099808
-1.3910705,-50.43194,6.194619,11.0,11,-0.050995775
-0.18843055,-6.7883863,-0.8338301,50.0,4,-0.050993472
-1.0389701,-37.195667,5.893513,6.0,12,-0.050991166
-0.24866985,-8.902509,-0.77917236,29.0,5,-0.050988864
-1.0358465,-36.8534,7.1664047,13.0,13,-0.05098656
-0.38632274,-13.659785,-0.7161653,30.0,6,-0.050984256
-1.4084707,-49.4955,11.431562,12.0,14,-0.05098195
-0.5731609,-20.018747,-0.3495717,55.0,7,-0.050979648
-1.0282393,-35.695473,9.568541,8.0,15,-0.05097734
-0.12041434,-3.9638577,-0.91555077,20.0,1,-0.050952
-0.14347196,-4.6958766,-0.9132119,27.0,2,-0.05094739
-0.17254822,-5.5837,-0.8847934,29.0,3,-0.050942782
-1.6142124,-51.942654,6.3808355,12.0,11,-0.05094048
-0.21330442,-6.8253856,-0.8384611,46.0,4,-0.050938174
-1.1282182,-35.900555,5.688896,6.0,12,-0.050935872
-0.2836232,-9.025054,-0.78997964,30.0,5,-0.050933566
-1.2192956,-38.58421,7.5037546,14.0,13,-0.050931264
-0.44707102,-14.06958,-0.7377277,28.0,6,-0.050928958
-1.1598626,-36.302094,8.385275,21.0,14,-0.050926656
-0.64277714,-20.00863,-0.34943208,42.0,7,-0.050924353
-1.1576366,-35.84034,9.608398,26.0,15,-0.050922047
-2.9076304,-86.28588,1.5069804,63.0,8,-0.050899006
-0.13550313,-4.000418,-0.92409897,17.0,1,-0.050896704
-0.16166604,-4.7483244,-0.92351556,37.0,2,-0.050892096
-0.1935999,-5.6284704,-0.8919894,36.0,3,-0.050887488
-1.7990781,-52.039867,6.39351,12.0,11,-0.050885182
-0.23850617,-6.8642774,-0.8433359,46.0,4,-0.05088288
-1.2615256,-36.125404,5.7251897,18.0,12,-0.050880574
-0.31561175,-9.037947,-0.7911998,24.0,5,-0.05087827
-0.4987838,-14.141788,-0.7416006,38.0,6,-0.050873663
-1.3322723,-37.587082,8.683111,18.0,14,-0.05087136
-0.71133804,-19.970291,-0.3488038,29.0,7,-0.050869055
-3.229163,-86.82274,1.5165443,63.0,8,-0.050843712
-0.1485205,-3.9746048,-0.9182502,18.0,1,-0.050841406
-0.1785351,-4.7555785,-0.92504203,31.0,2,-0.050836798
-0.21204914,-5.596177,-0.8869835,36.0,3,-0.05083219
-1.9870708,-52.1999,6.413984,12.0,11,-0.050829887
-0.26238906,-6.861419,-0.8430922,45.0,4,-0.050827585
-1.3814019,-35.958916,5.699534,12.0,12,-0.05082528
-0.35840148,-9.329456,-0.8168236,33.0,5,-0.050822977
-1.443816,-37.41338,7.2778373,13.0,13,-0.05082067
-0.54791313,-14.133972,-0.7412866,38.0,6,-0.05081837
-1.4225978,-36.53263,8.440614,7.0,14,-0.050816063
-0.7888571,-20.167503,-0.35229427,29.0,7,-0.05081376
-1.5139227,-38.53196,10.332574,10.0,15,-0.050811455
-0.16454193,-4.0266347,-0.93039757,23.0,1,-0.05078611
-0.19497266,-4.7510033,-0.92427886,34.0,2,-0.050781503
-0.23297036,-5.628956,-0.89230233,33.0,3,-0.050776895
-0.290975,-6.97153,-0.85674155,39.0,4,-0.050772287
-1.6167669,-38.57487,6.1150236,6.0,12,-0.050769985
-0.3963886,-9.4575405,-0.8281539,36.0,5,-0.05076768
-0.60019857,-14.201816,-0.74495006,20.0,6,-0.05076307
-1.5332574,-36.130253,8.348833,27.0,14,-0.05076077
-0.8675913,-20.360422,-0.35571498,34.0,7,-0.050758462
-2.1830509,-51.02182,13.6837635,24.0,15,-0.05075616
-0.1788557,-4.031876,-0.93174726,18.0,1,-0.050730817
-0.21050695,-4.726758,-0.9196994,31.0,2,-0.05072621
-4.079888,-91.25192,7.991484,63.0,10,-0.050723903
-0.2535036,-5.6478424,-0.89543104,33.0,3,-0.0507216
-2.3380363,-51.887295,6.3774233,12.0,11,-0.050719295
-0.31216818,-6.901065,-0.84821075,46.0,4,-0.050716992
-1.7546312,-38.640038,6.1262875,6.0,12,-0.050714687
-0.42659646,-9.394398,-0.8227502,40.0,5,-0.050712384
-2.4521031,-53.792282,10.467019,33.0,13,-0.05071008
-0.6453849,-14.103866,-0.7399258,18.0,6,-0.050707776
-1.6498841,-35.91833,8.301144,27.0,14,-0.05070547
-0.95164716,-20.638927,-0.36063653,8.0,7,-0.050703168
-4.2962775,-90.09989,1.5744863,63.0,8,-0.050677825
-0.19395334,-4.0526385,-0.9366962,14.0,1,-0.05067552
-4.3283095,-90.110306,4.7279263,58.0,9,-0.050673217
-0.2263465,-4.7122674,-0.91702807,33.0,2,-0.05067091
-4.3552113,-90.3416,7.9130445,63.0,10,-0.05066861
-0.27207127,-5.623246,-0.89167655,33.0,3,-0.050666302
-3.966605,-81.68757,10.041791,63.0,11,-0.050664
-0.34379244,-7.0545864,-0.8672223,46.0,4,-0.050661694
-0.4643504,-9.494342,-0.8316401,38.0,5,-0.050657086
-0.6906826,-14.021733,-0.73573893,20.0,6,-0.050652478
-1.830096,-37.021786,8.557589,7.0,14,-0.050650176
-1.8504875,-37.171093,9.972299,19.0,15,-0.050645567
-4.6303973,-90.4678,1.5811881,63.0,8,-0.050622527
-0.20589921,-4.009121,-0.9267984,12.0,1,-0.050620224
-4.6530967,-90.294106,4.7383933,58.0,9,-0.05061792
-0.24471329,-4.748701,-0.92427886,31.0,2,-0.050615616
-0.29650903,-5.71498,-0.90638137,31.0,3,-0.050611008
-0.36965817,-7.0771317,-0.87014717,46.0,4,-0.0506064
-0.5037457,-9.612042,-0.8420988,40.0,5,-0.05060179
-0.7402551,-14.031205,-0.736367,22.0,6,-0.050597183
-2.0463576,-38.65955,8.937756,3.0,14,-0.05059488
-1.119572,-21.081076,-0.3684901,8.0,7,-0.050592575
-1.9738511,-37.0448,9.940205,9.0,15,-0.050590273
-0.22245438,-4.0550776,-0.937596,15.0,1,-0.050564926
-4.9792423,-90.47674,4.7488604,58.0,9,-0.050562624
-0.26215157,-4.7634997,-0.92733175,34.0,2,-0.050560318
-4.9967914,-90.50793,7.930475,63.0,10,-0.050558016
-0.3211528,-5.7987213,-0.91983473,31.0,3,-0.05055571
-0.39667884,-7.117421,-0.87526566,45.0,4,-0.0505511
-3.2155337,-57.51414,9.123572,17.0,12,-0.0505488
-0.5292863,-9.466997,-0.82954836,36.0,5,-0.050546497
-0.8465562,-15.047523,-0.78985435,21.0,6,-0.05054189
-2.2033632,-39.043247,9.028186,8.0,14,-0.050539583
-1.2165452,-21.490316,-0.37571543,4.0,7,-0.05053728
-0.23672152,-4.0562215,-0.93804586,16.0,1,-0.05050963
-0.28072757,-4.795874,-0.93381923,33.0,2,-0.050505023
-5.3418884,-90.987175,7.974053,63.0,10,-0.05050272
-0.34127623,-5.7955933,-0.91952187,36.0,3,-0.050500415
-0.4239861,-7.157607,-0.8803842,43.0,4,-0.050495807
-0.56835675,-9.566525,-0.8384383,33.0,5,-0.0504912
-0.9115874,-15.253816,-0.8008449,24.0,6,-0.05048659
-2.3173683,-38.663776,8.942254,15.0,14,-0.05048429
-1.4139388,-23.521954,-0.4113183,4.0,7,-0.050481983
-2.2870638,-37.936443,10.183495,9.0,15,-0.05047968
-0.24931481,-4.0300856,-0.93219715,15.0,1,-0.050454337
-0.29697987,-4.787027,-0.93229276,33.0,2,-0.05044973
-0.36347273,-5.825911,-0.9245278,36.0,3,-0.05044512
-0.4514544,-7.195708,-0.885259,46.0,4,-0.050440513
-0.6009952,-9.552552,-0.8373924,35.0,5,-0.050435904
-0.99067765,-15.659162,-0.82230264,36.0,6,-0.050431296
-3.3860567,-53.373928,12.347114,7.0,14,-0.05042899
-1.4876615,-23.38516,-0.40901458,4.0,7,-0.050426688
-2.3847923,-37.38455,10.03752,19.0,15,-0.050424382
-0.26757532,-4.093362,-0.9470439,16.0,1,-0.05039904
-0.31407386,-4.7918386,-0.93343765,31.0,2,-0.05039443
-0.3839361,-5.826578,-0.9248406,29.0,3,-0.050389823
-0.47880024,-7.227761,-0.88940257,48.0,4,-0.050385214
-0.6286585,-9.464911,-0.8298969,36.0,5,-0.050380606
-3.2626638,-48.992474,9.544267,29.0,13,-0.050378304
-1.0535825,-15.779163,-0.8287923,38.0,6,-0.050375998
-2.6530967,-39.630516,9.169906,4.0,14,-0.050373696
-1.6501676,-24.58493,-0.4300971,10.0,7,-0.05037139
-0.28346914,-4.1157327,-0.95244277,12.0,1,-0.050343744
-0.33296198,-4.8220506,-0.93954355,28.0,2,-0.050339136
-0.4022217,-5.795643,-0.92014766,36.0,3,-0.050334528
-0.50056064,-7.194448,-0.8855027,48.0,4,-0.05032992
-3.6700904,-52.616695,8.353914,14.0,12,-0.050327614
-0.67225635,-9.613713,-0.84314466,36.0,5,-0.05032531
-2.7590055,-39.35697,7.6689954,14.0,13,-0.050323006
-1.1113164,-15.813243,-0.83078104,36.0,6,-0.050320704
-2.7875087,-39.66427,9.179803,4.0,14,-0.050318398
-1.7408211,-24.708982,-0.43236592,15.0,7,-0.050316095
-2.6078978,-36.92423,9.918464,9.0,15,-0.050313793
-0.2944494,-4.0778403,-0.9438946,11.0,1,-0.050288446
-0.34696653,-4.793506,-0.93420094,33.0,2,-0.050283838
-0.42301434,-5.815949,-0.92358917,29.0,3,-0.05027923
-4.1824794,-57.365788,7.0623293,14.0,11,-0.050276928
-0.52383834,-7.1848297,-0.8845278,50.0,4,-0.05027462
-0.7002017,-9.55778,-0.8384383,31.0,5,-0.050270014
-3.6420753,-49.595688,9.666385,29.0,13,-0.05026771
-1.1622834,-15.789554,-0.8297343,42.0,6,-0.05026541
-3.7711003,-51.230183,11.859419,7.0,14,-0.050263103
-1.7454965,-23.656078,-0.4140409,4.0,7,-0.0502608
-2.716076,-36.722717,9.8667,9.0,15,-0.050258495
-0.3122275,-4.133194,-0.9569418,9.0,1,-0.05023315
-0.36577642,-4.8196726,-0.93954355,31.0,2,-0.050228544
-0.44529524,-5.853908,-0.9298466,29.0,3,-0.050223935
-4.3446207,-56.983437,7.0169935,14.0,11,-0.050221633
-0.5493689,-7.1888947,-0.885259,46.0,4,-0.050219327
-3.7798321,-49.34852,7.8389316,12.0,12,-0.050217025
-0.7405759,-9.646659,-0.8464566,38.0,5,-0.05021472
-1.2236873,-15.867044,-0.83402586,38.0,6,-0.05021011
-3.792563,-49.17659,11.387022,6.0,14,-0.05020781
-1.9038811,-24.630766,-0.43121406,10.0,7,-0.050205503
-2.8239574,-36.45107,9.796302,18.0,15,-0.0502032
-0.32968265,-4.1611624,-0.96369034,10.0,1,-0.050177857
-0.38188162,-4.798729,-0.93572736,31.0,2,-0.05017325
-4.5775647,-57.521732,5.048409,21.0,10,-0.050170943
-0.46690506,-5.8542056,-0.9301594,28.0,3,-0.05016864
-4.4319754,-55.447433,6.8298025,14.0,11,-0.050166335
-0.5799929,-7.240259,-0.8918399,45.0,4,-0.050164033
-0.7717733,-9.592244,-0.8419245,38.0,5,-0.050159425
-1.2826393,-15.872407,-0.83454925,47.0,6,-0.050154816
-4.0335245,-49.914066,11.561134,13.0,14,-0.05015251
-1.9983418,-24.675444,-0.43212157,5.0,7,-0.05015021
-2.9530072,-36.384636,9.78129,27.0,15,-0.050147902
-0.34138918,-4.1172004,-0.95379245,7.0,1,-0.05012256
-0.4023998,-4.8325133,-0.94259644,31.0,2,-0.05011795
-4.7569494,-57.12732,5.01529,21.0,10,-0.05011565
-0.48375866,-5.797336,-0.9213991,28.0,3,-0.050113343
-4.7000155,-56.206264,6.9253483,14.0,11,-0.05011104
-0.6086818,-7.2638016,-0.8950085,45.0,4,-0.050108735
-0.80659145,-9.58538,-0.8415758,29.0,5,-0.050104126
-4.1785316,-49.553375,9.666385,29.0,13,-0.050101824
-1.3443358,-15.909392,-0.83674735,35.0,6,-0.05009952
-4.221195,-49.955265,11.574182,6.0,14,-0.050097216
-3.1092064,-36.64306,9.853759,18.0,15,-0.050092608
-0.35950392,-4.1508675,-0.9618907,7.0,1,-0.050067265
-0.41738847,-4.7997127,-0.93649065,30.0,2,-0.050062656
-0.51494956,-5.9096637,-0.9395456,31.0,3,-0.05005805
-4.830011,-55.318527,6.818103,13.0,11,-0.050055742
-0.6321868,-7.225926,-0.89062124,46.0,4,-0.05005344
-0.84450674,-9.614116,-0.8443648,31.0,5,-0.05004883
-1.4235196,-16.141111,-0.8492033,30.0,6,-0.050044224
-4.3301396,-49.098915,11.379374,12.0,14,-0.050041918
-3.2716033,-36.948925,9.939169,19.0,15,-0.05003731
-5.0506883,-56.259144,0.98595625,24.0,8,-0.049956165
-0.3729177,-4.145771,-0.9609909,7.0,1,-0.04995386
-0.4338746,-4.8140197,-0.93954355,33.0,2,-0.04994925
-5.1441894,-56.965725,5.004134,21.0,10,-0.04994695
-0.5384602,-5.951205,-0.9464286,26.0,3,-0.049944643
-5.0308137,-55.493973,6.8417454,28.0,11,-0.04994234
-0.6699388,-7.3899703,-0.91109526,43.0,4,-0.049940035
-5.2240033,-57.51338,9.146724,17.0,12,-0.049937733
-0.87958217,-9.664988,-0.84907126,28.0,5,-0.049935427
-1.1263472,-12.352595,2.4110627,2.0,13,-0.049933124
-1.4660454,-16.047058,-0.8444931,35.0,6,-0.04993082
-1.1933851,-13.062572,3.0282912,7.0,14,-0.049928516
-3.4345984,-37.45019,10.076861,19.0,15,-0.049923908
-5.2249875,-56.110672,0.98365253,36.0,8,-0.049900867
-0.38883543,-4.167795,-0.96638966,7.0,1,-0.049898565
-0.45495155,-4.867287,-0.9502288,30.0,2,-0.049893957
-0.552103,-5.884484,-0.93610394,22.0,3,-0.04988935
-5.2086754,-55.411766,6.833702,14.0,11,-0.049887042
-0.7018717,-7.466764,-0.9208448,43.0,4,-0.04988474
-4.9394417,-52.44925,8.343903,14.0,12,-0.049882434
-0.9252903,-9.806819,-0.86179596,21.0,5,-0.049880132
-1.1691531,-12.368338,2.4148786,20.0,13,-0.049877826
-1.5318662,-16.175327,-0.85150605,30.0,6,-0.049875524
-1.239083,-13.083762,3.0341399,23.0,14,-0.049873218
-5.050503,-53.131763,14.300788,28.0,15,-0.04986861
-5.4152417,-56.136826,0.9844204,36.0,8,-0.049845573
-0.4005924,-4.145146,-0.9614408,4.0,1,-0.049843267
-5.423409,-56.016838,2.9494455,22.0,9,-0.049840964
-0.47184658,-4.8735685,-0.95175534,31.0,2,-0.04983866
-5.369165,-55.35578,4.865731,20.0,10,-0.049836356
-0.5825028,-5.99469,-0.95393753,26.0,3,-0.04983405
-0.7360248,-7.5472484,-0.93108183,43.0,4,-0.049829442
-1.2095059,-12.380005,1.9701359,1.0,12,-0.04982714
-0.95141184,-9.73826,-0.8560437,24.0,5,-0.049824834
-1.2107329,-12.370255,2.4160237,8.0,13,-0.04982253
-1.5983611,-16.30135,-0.8584144,47.0,6,-0.049820226
-1.2837942,-13.06966,3.0318904,43.0,14,-0.049817923
-5.553673,-55.542534,0.974333,11.0,8,-0.049790274
-0.4181669,-4.174747,-0.96863925,4.0,1,-0.049787972
-5.6097403,-55.906155,2.9446306,33.0,9,-0.049785666
-0.48728767,-4.856264,-0.94870234,28.0,2,-0.049783364
-1.2215102,-12.15211,1.0685294,2.0,10,-0.049781058
-0.60441434,-6.0024467,-0.95550185,33.0,3,-0.049778756
-0.7691499,-7.6117845,-0.93936896,45.0,4,-0.049774148
-0.98178744,-9.699199,-0.85290605,17.0,5,-0.04976954
-1.2671775,-12.4968195,2.441592,21.0,13,-0.049767237
-1.6520228,-16.26388,-0.8567397,38.0,6,-0.04976493
-1.3331565,-13.101934,3.0404384,23.0,14,-0.04976263
-1.2745258,-12.482478,3.3620596,4.0,15,-0.04975802
-5.773663,-55.775425,0.9787659,24.0,8,-0.04973498
-0.42469737,-4.095728,-0.9506432,3.0,1,-0.049732674
-5.8129034,-55.963707,2.9487128,11.0,9,-0.04973037
-0.50443923,-4.856487,-0.94908404,27.0,2,-0.049728066
-1.2573225,-12.084358,1.0629514,2.0,10,-0.049725763
-0.62700135,-6.0160184,-0.9580048,33.0,3,-0.04972346
-0.80727845,-7.719615,-0.9530183,43.0,4,-0.049718853
-1.2917893,-12.331967,1.9638785,3.0,12,-0.049716547
-1.0187857,-9.709406,-0.8541262,5.0,5,-0.049714245
-1.7039851,-16.212328,-0.85433227,21.0,6,-0.049709637
-5.3281755,-50.440132,13.590589,23.0,15,-0.049702723
-7.7010827,-71.94198,1.262926,44.0,8,-0.04967968
-0.449379,-4.191102,-0.9731383,4.0,1,-0.04967738
-5.9834733,-55.712723,2.936571,11.0,9,-0.049675077
-0.53063524,-4.9326844,-0.96434873,31.0,2,-0.04967277
-1.3018206,-12.081649,1.0631257,33.0,10,-0.04967047
-0.6556174,-6.074563,-0.9677037,26.0,3,-0.049668163
-0.8316591,-7.6930676,-0.9500935,46.0,4,-0.049663555
-1.3395066,-12.370588,1.9707617,18.0,12,-0.049661253
-1.1684659,-10.773427,-0.9480801,45.0,5,-0.049658947
-1.7070043,-15.687748,-0.8270129,15.0,6,-0.04965434
-1.3850721,-12.708481,2.9513578,8.0,14,-0.049652036
-7.986717,-72.11202,1.2664164,45.0,8,-0.049624387
-0.46409267,-4.1836166,-0.9717885,3.0,1,-0.049622085
-7.997263,-72.09225,3.8013701,37.0,9,-0.04961978
-0.54199624,-4.878118,-0.954045,24.0,2,-0.049617477
-1.3561043,-12.185942,1.0727129,11.0,10,-0.04961517
-0.67878795,-6.089907,-0.97051954,24.0,3,-0.04961287
-5.7912893,-51.875744,6.4091096,12.0,11,-0.049610563
-0.8622513,-7.7236557,-0.95423704,45.0,4,-0.04960826
-1.3796072,-12.338353,1.9663814,50.0,12,-0.049605954
-1.215822,-10.856403,-0.95574987,41.0,5,-0.049603652
-1.7622006,-15.685662,-0.8272222,18.0,6,-0.049599044
-1.4093661,-12.545019,2.914466,16.0,14,-0.049596738
-5.7100344,-50.666622,13.662023,23.0,15,-0.04959213
-0.47995517,-4.19948,-0.9758377,3.0,1,-0.049566787
-6.3566628,-55.619106,2.9338493,11.0,9,-0.049564485
-0.5595095,-4.8879976,-0.9563347,27.0,2,-0.04956218
-1.3794893,-12.032921,1.0596396,57.0,10,-0.049559876
-0.6928946,-6.034635,-0.9620721,26.0,3,-0.04955757
-5.9632854,-51.856255,6.4091096,12.0,11,-0.04955527
-0.89534324,-7.7858334,-0.9622804,46.0,4,-0.049552962
-1.3902292,-12.070748,1.9244571,46.0,12,-0.04955066
-1.2607197,-10.929503,-0.962548,46.0,5,-0.049548354
-1.8139776,-15.677749,-0.82711756,6.0,6,-0.049543746
-6.3653636,-55.01422,12.785768,17.0,14,-0.049541444
-4.583003,-39.549282,-0.6949549,10.0,7,-0.04953914
-5.82501,-50.190693,13.538824,23.0,15,-0.049536835
-11.774242,-100.22942,1.7615412,63.0,8,-0.049513794
-0.49866033,-4.238508,-0.9852856,3.0,1,-0.049511492
-6.6807175,-56.699425,2.9920468,11.0,9,-0.049509186
-0.57410765,-4.8724666,-0.9536634,30.0,2,-0.049506884
-1.4198488,-12.032237,1.0599881,57.0,10,-0.049504578
-0.73191327,-6.1931653,-0.9877273,34.0,3,-0.049502276
-6.124483,-51.74551,6.3978972,24.0,11,-0.04949997
-0.9295256,-7.8417993,-0.9695926,46.0,4,-0.049497668
-1.4446964,-12.169787,1.9410391,33.0,12,-0.04949536
-1.2976613,-10.931197,-0.9630709,43.0,5,-0.04949306
-6.198631,-52.138096,10.205992,32.0,13,-0.049490757
-1.8992528,-15.951285,-0.84187627,7.0,6,-0.04948845
-6.697875,-56.170105,13.059758,9.0,14,-0.04948615
-8.131386,-67.98997,18.347683,51.0,15,-0.04948154
-0.51462436,-4.2464147,-0.9875352,3.0,1,-0.049456194
-6.89784,-56.834373,3.0004206,11.0,9,-0.04945389
-0.58921945,-4.854841,-0.95061046,30.0,2,-0.049451586
-1.4591979,-12.005451,1.0580707,33.0,10,-0.049449284
-0.7497075,-6.1591983,-0.9827214,28.0,3,-0.049446978
-6.300269,-51.684406,6.3930225,12.0,11,-0.049444675
-0.9592986,-7.8582115,-0.97203,46.0,4,-0.049442373
-1.4974759,-12.248982,1.9544924,31.0,12,-0.049440067
-1.3321841,-10.896937,-0.96045625,45.0,5,-0.049437765
-1.5460002,-12.627603,2.472885,3.0,13,-0.04943546
-2.0550606,-16.761314,-0.8850012,23.0,6,-0.049433157
-6.8383327,-55.693775,12.954481,9.0,14,-0.04943085
-5.1884575,-42.195732,-0.7420763,11.0,7,-0.04942855
-0.52799684,-4.23299,-0.98483574,4.0,1,-0.0494009
-1.491029,-11.936729,0.630439,1.0,9,-0.049398594
-0.62187403,-4.971482,-0.9738891,28.0,2,-0.04939629
-1.5273082,-12.209844,1.0765477,33.0,10,-0.04939399
-0.7775872,-6.207505,-0.990856,32.0,3,-0.049391683
-6.9056206,-55.049904,6.812253,13.0,11,-0.04938938
-0.9936502,-7.9099646,-0.97885466,46.0,4,-0.049387075
-1.5523052,-12.339718,1.9698231,5.0,12,-0.049384773
-1.3726126,-10.895934,-0.9608049,45.0,5,-0.049382467
-1.5917795,-12.617956,2.4721215,3.0,13,-0.049380165
-2.1287458,-16.850763,-0.89013004,33.0,6,-0.04937786
-6.3356338,-50.15172,11.670461,6.0,14,-0.049375556
-5.795503,-45.811836,-0.8060219,13.0,7,-0.04937325
-0.5392871,-4.198168,-0.9771874,5.0,1,-0.049345605
-1.5322214,-11.911375,0.62939227,22.0,9,-0.0493433
-0.64009136,-4.969169,-0.9738891,30.0,2,-0.049340997
-1.5605953,-12.115242,1.0687038,38.0,10,-0.04933869
-0.8008384,-6.2085323,-0.9914818,28.0,3,-0.04933639
-1.6117337,-12.477855,1.5448159,48.0,11,-0.049334083
-1.0162691,-7.857052,-0.97276115,41.0,4,-0.04933178
-1.6137599,-12.459322,1.9898466,37.0,12,-0.049329475
-1.4281715,-11.011356,-0.97143793,43.0,5,-0.049327172
-1.6207161,-12.461805,-0.65859574,52.0,6,-0.049322564
-6.9260473,-53.254887,12.398402,8.0,14,-0.04932026
-5.9597583,-45.762527,-0.8055333,13.0,7,-0.049317956
-6.524471,-50.030537,13.519155,22.0,15,-0.04931565
-0.55645823,-4.2096868,-0.9803367,9.0,1,-0.049290307
-1.5784894,-11.925479,0.630439,11.0,9,-0.049288005
-0.6576909,-4.968851,-0.9742708,21.0,2,-0.0492857
-1.6277646,-12.281276,1.0838689,49.0,10,-0.049283396
-0.8329446,-6.2760506,-1.002745,28.0,3,-0.04928109
-1.6619009,-12.505316,1.5489595,32.0,11,-0.04927879
-1.0612948,-7.975274,-0.9878729,48.0,4,-0.049276482
-1.6708953,-12.539479,2.0036128,58.0,12,-0.04927418
-1.4702828,-11.033953,-0.97387826,45.0,5,-0.049271874
-2.2468922,-16.817282,-0.88918805,19.0,6,-0.049267266
-7.191478,-53.754524,12.520776,8.0,14,-0.049264964
-6.730401,-50.17478,13.564707,23.0,15,-0.049260356
-0.58215785,-4.2888217,-0.99923265,10.0,1,-0.049235012
-1.6427027,-12.086138,0.63923144,1.0,9,-0.049232706
-0.68587214,-5.0462847,-0.9899171,31.0,2,-0.049230404
-1.7012537,-12.500576,1.1037403,24.0,10,-0.0492281
-0.851379,-6.24766,-0.99867773,24.0,3,-0.049225796
-1.7082264,-12.519107,1.5513968,12.0,11,-0.04922349
-1.094502,-8.010858,-0.99274784,45.0,4,-0.049221188
-1.719745,-12.570756,2.0095575,18.0,12,-0.049218882
-1.5042002,-10.995195,-0.97091496,45.0,5,-0.04921658
-1.7169657,-12.534161,2.4591465,57.0,13,-0.049214274
-2.303409,-16.793507,-0.8883506,45.0,6,-0.04921197
-7.155295,-52.09965,12.141059,7.0,14,-0.04920967
-1.7124759,-12.45289,-0.21941166,60.0,7,-0.049207363
-6.948187,-50.461018,13.648563,23.0,15,-0.04920506
-0.59847,-4.296414,-1.0014821,11.0,1,-0.049179714
-1.6673424,-11.969846,0.6333698,62.0,9,-0.049177412
-0.6986008,-5.00886,-0.983048,27.0,2,-0.049175106
-1.7186987,-12.307104,1.0871807,41.0,10,-0.049172804
-0.8808426,-6.299428,-1.0074381,24.0,3,-0.049170498
-1.748338,-12.487511,1.5482283,18.0,11,-0.049168196
-1.1290717,-8.054169,-0.99859744,45.0,4,-0.04916589
-1.7515467,-12.494559,1.998294,20.0,12,-0.049163587
-1.5478323,-11.027366,-0.9742269,45.0,5,-0.049161285
-7.412242,-52.740852,10.352533,33.0,13,-0.04915898
-1.7597531,-12.505462,-0.66184056,8.0,6,-0.049156677
-7.36185,-52.249958,12.181999,15.0,14,-0.04915437
-1.7554361,-12.459023,-0.21962108,4.0,7,-0.04915207
-7.1602826,-50.75524,13.734492,24.0,15,-0.049149763
-1.7710553,-12.428535,0.21913242,4.0,8,-0.049126722
-0.6061077,-4.2481055,-0.99068445,12.0,1,-0.04912442
-0.7352617,-5.140491,-1.0093796,33.0,2,-0.04911981
-1.7678639,-12.3444195,1.0910156,44.0,10,-0.04911751
-0.90284795,-6.304294,-1.0086895,25.0,3,-0.049115203
-1.7846658,-12.446275,1.5438409,30.0,11,-0.0491129
-1.1478765,-7.9953623,-0.99177283,37.0,4,-0.049110595
-7.4698224,-51.965458,8.315119,14.0,12,-0.049108293
-1.5891529,-11.041617,-0.97597003,41.0,5,-0.049105987
-7.564717,-52.56052,10.322003,33.0,13,-0.049103685
-2.441879,-16.945469,-0.89724773,23.0,6,-0.04910138
-7.8019524,-54.074947,12.613456,8.0,14,-0.049099077
-7.3340917,-50.706997,13.728281,24.0,15,-0.04909447
-1.8170298,-12.440085,0.21944655,4.0,8,-0.049071427
-0.6251625,-4.2748866,-0.99743295,13.0,1,-0.049069125
-1.761206,-12.043199,0.6378707,51.0,9,-0.04906682
-0.7520192,-5.1360817,-1.008998,31.0,2,-0.049064517
-1.7992519,-12.273436,1.0852633,55.0,10,-0.04906221
-0.93718296,-6.3851447,-1.0221429,34.0,3,-0.04905991
-1.2017843,-8.168062,-1.0137093,46.0,4,-0.0490553
-7.4922895,-50.922195,8.152114,13.0,12,-0.049052995
-1.6420203,-11.146668,-0.9857314,39.0,5,-0.049050692
-7.69716,-52.18808,10.254076,32.0,13,-0.049048387
-2.5001404,-16.930916,-0.8969337,40.0,6,-0.049046084
-7.9473343,-53.75436,12.54507,8.0,14,-0.04904378
-1.8539459,-12.539762,-0.2212616,36.0,7,-0.049041476
-7.556516,-51.049313,13.827667,25.0,15,-0.04903917
-1.8715739,-12.52299,0.22101727,3.0,8,-0.049016133
-0.6445256,-4.3074813,-1.0055312,22.0,1,-0.049013827
-1.8733618,-12.505104,0.66267794,10.0,9,-0.049011525
-0.77460295,-5.1644897,-1.0151039,30.0,2,-0.04900922
-1.8491844,-12.314367,1.0894468,52.0,10,-0.049006917
-0.9606987,-6.3976293,-1.0246458,34.0,3,-0.04900461
-8.532453,-56.753193,7.0467296,14.0,11,-0.04900231
-1.23566,-8.20918,-1.0193152,43.0,4,-0.049000002
-7.6529236,-50.782436,8.133967,13.0,12,-0.0489977
-1.663085,-11.022663,-0.9752727,28.0,5,-0.048995394
-2.582522,-17.096317,-0.90614486,26.0,6,-0.048990786
-7.7105875,-50.983906,11.904409,7.0,14,-0.048988484
-1.9192069,-12.542078,0.22147104,1.0,8,-0.048960835
-0.66752553,-4.3572145,-1.0176786,21.0,1,-0.048958533
-1.9220793,-12.546205,0.6651901,11.0,9,-0.048956227
-0.775057,-5.0532207,-0.9937333,28.0,2,-0.048953924
-1.910875,-12.44405,1.1014743,57.0,10,-0.04895162
-0.9926294,-6.4567156,-1.0346577,34.0,3,-0.048949316
-8.749843,-56.848633,7.0623293,14.0,11,-0.04894701
-1.2779115,-8.293104,-1.0302836,48.0,4,-0.048944708
-7.7978125,-50.604496,8.109564,13.0,12,-0.048942402
-1.734867,-11.245503,-0.9954929,39.0,5,-0.0489401
-2.659581,-17.199705,-0.91211116,28.0,6,-0.04893549
-8.915863,-57.592987,13.454773,9.0,14,-0.048933186
-0.68649346,-4.3838563,-1.0244272,29.0,1,-0.048903234
-1.9729772,-12.584802,0.66759753,6.0,9,-0.048900932
-0.8127821,-5.1784925,-1.0189201,27.0,2,-0.048898626
-1.9558494,-12.447145,1.1023458,13.0,10,-0.048896324
-1.00913,-6.4221654,-1.0296518,36.0,3,-0.048894018
-1.9628797,-12.4776945,1.5509094,8.0,11,-0.048891716
-1.3140529,-8.343726,-1.0371082,48.0,4,-0.04888941
-1.9717604,-12.505702,2.0051773,13.0,12,-0.048887108
-1.8020692,-11.416501,-1.0111809,45.0,5,-0.0488848
-2.7349946,-17.307188,-0.9182868,40.0,6,-0.048880197
-8.0397835,-50.818596,11.878315,7.0,14,-0.04887789
-10.433124,-65.79788,17.85075,49.0,15,-0.048873283
-0.7067232,-4.4122205,-1.0316256,25.0,1,-0.04884794
-1.9637687,-12.246531,0.6500127,27.0,9,-0.048845634
-0.8389649,-5.2319856,-1.029987,36.0,2,-0.04884333
-1.9939543,-12.420919,1.1006026,5.0,10,-0.048841026
-1.030914,-6.414703,-1.029026,34.0,3,-0.048838723
-2.0070539,-12.474687,1.5513968,56.0,11,-0.04883642
-1.3434868,-8.341049,-1.0373518,52.0,4,-0.048834115
-2.0245197,-12.555298,2.0142503,1.0,12,-0.048831813
-1.8462602,-11.449801,-1.0146672,48.0,5,-0.048829507
-2.8020852,-17.338938,-0.9204849,35.0,6,-0.0488249
-9.292112,-57.434776,13.432277,9.0,14,-0.048822597
-0.722435,-4.41165,-1.0320754,30.0,1,-0.048792645
-2.0271828,-12.365742,0.65671164,16.0,9,-0.04879034
-0.863892,-5.2697096,-1.038001,34.0,2,-0.048788037
-2.0553703,-12.523984,1.1103642,5.0,10,-0.04878573
-1.073154,-6.5319185,-1.0484239,45.0,3,-0.04878343
-2.0425327,-12.418635,1.5453033,24.0,11,-0.048781123
-1.3767862,-8.361772,-1.0405205,56.0,4,-0.04877882
-1.8901049,-11.466877,-1.0167589,41.0,5,-0.048774213
-2.8681245,-17.362553,-0.92226434,35.0,6,-0.048769604
-8.505008,-51.43031,12.034882,7.0,14,-0.0487673
-10.884013,-65.6739,17.837292,49.0,15,-0.04876269
-13.657848,-81.70371,1.4459319,63.0,8,-0.048739653
-0.728825,-4.3552847,-1.0194782,33.0,1,-0.048737347
-13.474999,-80.4372,4.274278,52.0,9,-0.048735045
-0.8796868,-5.2511725,-1.034948,19.0,2,-0.04873274
-1.0966032,-6.532028,-1.0490496,40.0,3,-0.04872813
-9.561114,-56.89094,7.0832906,15.0,11,-0.04872583
-1.4112346,-8.388236,-1.0444204,50.0,4,-0.048723523
-1.9436873,-11.540763,-1.0239056,37.0,5,-0.048718914
-2.9283793,-17.350464,-0.9221596,35.0,6,-0.048714306
-8.692274,-51.446426,12.045679,7.0,14,-0.048712004
-0.7522315,-4.400736,-1.0307257,36.0,1,-0.048682053
-13.718642,-80.173134,4.262764,52.0,9,-0.048679747
-0.8956936,-5.234524,-1.0322767,28.0,2,-0.048677444
-2.1481361,-12.54075,1.1131531,16.0,10,-0.04867514
-1.1180615,-6.5203733,-1.0477982,29.0,3,-0.048672836
-2.1275008,-12.394292,1.5440848,14.0,11,-0.04867053
-1.4502566,-8.439995,-1.0514888,41.0,4,-0.048668228
-1.981595,-11.520164,-1.0226854,33.0,5,-0.04866362
-8.704911,-50.553894,9.971297,31.0,13,-0.048661314
-2.9957142,-17.379503,-0.9242531,16.0,6,-0.04865901
-8.457937,-49.01724,11.483751,12.0,14,-0.048656706
-0.66030216,-3.7911766,-1.0311351,1.0,0,-0.049123764
-14.231349,-81.62607,1.446281,63.0,8,-0.04912146
-0.7692636,-4.407682,-1.0329752,32.0,1,-0.049119156
-2.2036552,-12.613377,0.6710517,7.0,9,-0.049116854
-0.9264617,-5.302922,-1.0463966,28.0,2,-0.049114548
-2.1939566,-12.5449505,1.1141989,22.0,10,-0.049112245
-1.1408153,-6.516431,-1.0477982,42.0,3,-0.04910994
-2.1724656,-12.396565,1.5453033,52.0,11,-0.049107637
-1.4910271,-8.499404,-1.0595322,41.0,4,-0.04910533
-9.511194,-54.161762,8.709646,16.0,12,-0.04910303
-2.0417442,-11.614862,-1.0317496,33.0,5,-0.049100723
-9.297374,-52.889935,10.438397,33.0,13,-0.04909842
-3.1750839,-18.043633,-0.96015555,25.0,6,-0.049096115
-8.722969,-49.52095,11.608824,13.0,14,-0.049093813
-0.6809622,-3.8267703,-1.0414879,1.0,0,-0.04906847
-0.7808855,-4.383866,-1.0280263,31.0,1,-0.04906386
-0.94865096,-5.314953,-1.0494496,30.0,2,-0.049059253
-1.1678215,-6.529707,-1.050614,42.0,3,-0.049054645
-2.2118804,-12.367413,1.5426223,48.0,11,-0.04905234
-1.5185878,-8.482424,-1.0580697,48.0,4,-0.049050037
-2.1938517,-12.241949,1.9698231,1.0,12,-0.04904773
-2.0717201,-11.548833,-1.0265204,24.0,5,-0.04904543
-3.2747633,-18.21862,-0.9700994,7.0,6,-0.04904082
-8.790874,-48.857647,11.460806,19.0,14,-0.049038514
-0.6998379,-3.8547826,-1.0497701,1.0,0,-0.04901317
-0.805667,-4.428907,-1.0392739,30.0,1,-0.049008563
-0.9795083,-5.3792105,-1.0628061,35.0,2,-0.049003955
-1.1874157,-6.508101,-1.0477982,31.0,3,-0.048999347
-2.2614744,-12.382655,1.5455471,60.0,11,-0.048997045
-1.5400288,-8.424076,-1.0514888,43.0,4,-0.04899474
-2.2404823,-12.243541,1.9713873,54.0,12,-0.048992436
-2.152187,-11.761034,-1.0460433,46.0,5,-0.04899013
-9.616881,-52.501488,10.37505,33.0,13,-0.04898783
-3.2126288,-17.521465,-0.9335689,2.0,6,-0.048985522
-8.906142,-48.525734,11.390172,12.0,14,-0.04898322
-12.506749,-68.01023,18.528856,52.0,15,-0.04897861
-0.713289,-3.8523161,-1.0497701,2.0,0,-0.048957877
-0.8197,-4.4184027,-1.0374742,34.0,1,-0.04895327
-0.9925435,-5.3448744,-1.0567002,30.0,2,-0.04894866
-1.2379502,-6.6534534,-1.071889,40.0,3,-0.048944052
-1.5901618,-8.529883,-1.0653819,45.0,4,-0.048939444
-2.278498,-12.210401,1.96732,46.0,12,-0.048937142
-2.208579,-11.835709,-1.0533643,44.0,5,-0.048934836
-3.4752846,-18.587963,-0.99103373,5.0,6,-0.048930228
-9.07296,-48.480946,11.387022,6.0,14,-0.048927926
-0.71813107,-3.8042433,-1.0373468,4.0,0,-0.04890258
-0.82787526,-4.3772187,-1.0284761,32.0,1,-0.04889797
-1.0144814,-5.358739,-1.0601349,30.0,2,-0.048893362
-1.2600626,-6.6432695,-1.0709505,40.0,3,-0.048888758
-2.347126,-12.362665,1.5450597,56.0,11,-0.048886452
-1.6258558,-8.555484,-1.0692817,39.0,4,-0.04888415
-2.3455286,-12.3425045,1.9898466,28.0,12,-0.048881844
-2.2565808,-11.863159,-1.0565019,28.0,5,-0.04887954
-9.610097,-50.473606,9.987325,31.0,13,-0.048877236
-3.5797825,-18.783686,-1.002129,5.0,6,-0.048874933
-9.523302,-49.92293,11.733447,13.0,14,-0.048872627
-0.738341,-3.837757,-1.0471818,6.0,0,-0.048847284
-0.84496576,-4.3878446,-1.0316256,36.0,1,-0.048842676
-1.0369,-5.3744416,-1.063951,29.0,2,-0.048838068
-1.280962,-6.6332355,-1.0700119,40.0,3,-0.04883346
-1.6606284,-8.583178,-1.0734253,43.0,4,-0.04882885
-2.393856,-12.361392,1.9942267,1.0,12,-0.04882655
-2.314282,-11.939317,-1.0639973,36.0,5,-0.048824243
-9.851395,-50.823074,10.062885,31.0,13,-0.04882194
-3.6751459,-18.942291,-1.0112355,5.0,6,-0.048819635
-9.694746,-49.92168,11.740645,6.0,14,-0.048817333
-0.75551826,-3.858038,-1.0533936,9.0,0,-0.04879199
-0.8670297,-4.4192896,-1.0397238,36.0,1,-0.04878738
-1.0641745,-5.4191356,-1.0734915,34.0,2,-0.048782773
-1.3136417,-6.6771793,-1.0778337,40.0,3,-0.048778165
-2.3905659,-12.139948,1.5192233,2.0,11,-0.04877586
-1.701328,-8.631863,-1.0802499,43.0,4,-0.048773557
-2.4373736,-12.354899,1.9945397,22.0,12,-0.04877125
-2.363276,-11.968305,-1.0673091,36.0,5,-0.04876895
-3.7846172,-19.148796,-1.0229588,5.0,6,-0.04876434
-9.865165,-49.868416,11.736146,6.0,14,-0.048762035
-0.76814085,-3.847665,-1.051323,10.0,0,-0.04873669
-10.022152,-50.201576,0.8935632,19.0,8,-0.04873439
-0.88321453,-4.4200583,-1.0406237,36.0,1,-0.048732083
-12.645152,-63.22539,3.3791237,21.0,9,-0.04872978
-1.098288,-5.4864254,-1.0876113,34.0,2,-0.048727475
-1.3454853,-6.7091193,-1.0837781,28.0,3,-0.048722867
-1.7255887,-8.596677,-1.0765939,39.0,4,-0.04871826
-2.495271,-12.4199095,2.0064287,33.0,12,-0.048715957
-2.4254627,-12.061554,-1.0763733,28.0,5,-0.04871365
-3.8993464,-19.356041,-1.0347867,5.0,6,-0.048709042
-10.02015,-49.694386,11.703753,6.0,14,-0.04870674
-0.7781037,-3.8279219,-1.0466642,13.0,0,-0.048681397
-10.2080765,-50.17431,0.89373773,9.0,8,-0.04867909
-0.9029081,-4.433977,-1.0446726,34.0,1,-0.04867679
-1.1115507,-5.453703,-1.081887,34.0,2,-0.04867218
-1.3613888,-6.6676083,-1.0778337,26.0,3,-0.048667572
-1.7582779,-8.596128,-1.0773251,39.0,4,-0.048662964
-2.5390046,-12.41306,2.0067415,43.0,12,-0.04866066
-2.3732457,-11.592363,-1.0352359,16.0,5,-0.048658356
-4.029082,-19.645573,-1.0510107,5.0,6,-0.048653748
-10.197076,-49.67629,11.707803,13.0,14,-0.048651446
-0.8024205,-3.8781524,-1.0611582,12.0,0,-0.0486261
-10.394659,-50.238087,0.89548296,29.0,8,-0.048623797
-0.911284,-4.4004264,-1.0374742,30.0,1,-0.04862149
-13.571861,-65.47849,3.504521,26.0,9,-0.04861919
-1.1341703,-5.4670906,-1.0853217,32.0,2,-0.048616882
-1.3971456,-6.7288175,-1.0884712,28.0,3,-0.048612274
-11.703247,-56.31484,7.0623293,14.0,11,-0.048609972
-1.781519,-8.564985,-1.0741564,24.0,4,-0.04860767
-2.5583787,-12.278386,-1.0972908,42.0,5,-0.04860306
-11.158333,-53.552006,10.633022,34.0,13,-0.048600756
-4.1659718,-19.976221,-1.0694331,2.0,6,-0.048598453
-10.37808,-49.72041,11.726249,33.0,14,-0.048596147
-14.275416,-68.27303,18.689325,53.0,15,-0.04859154
-0.8152767,-3.8754702,-1.0611582,12.0,0,-0.048570804
-10.5641985,-50.174103,0.8949943,9.0,8,-0.0485685
-0.93628365,-4.4429836,-1.0482719,34.0,1,-0.048566196
-1.1612068,-5.5055614,-1.0937172,34.0,2,-0.048561588
-1.4353256,-6.793477,-1.0997344,21.0,3,-0.04855698
-1.8586744,-8.782053,-1.1021864,28.0,4,-0.04855237
-11.272404,-53.215153,8.615473,15.0,12,-0.04855007
-2.6172485,-12.355597,-1.1049604,42.0,5,-0.048547763
-4.2978625,-20.25462,-1.0851338,2.0,6,-0.048543155
-10.709049,-50.425404,11.90126,21.0,14,-0.048540853
-0.83324647,-3.8933806,-1.0668522,20.0,0,-0.04851551
-10.697806,-49.943344,0.89153874,19.0,8,-0.048513204
-0.9505609,-4.433972,-1.0469222,31.0,1,-0.0485109
-1.1973052,-5.5801764,-1.1093636,34.0,2,-0.048506293
-1.4826899,-6.898508,-1.117568,30.0,3,-0.048501685
-12.011785,-55.839733,7.0130935,14.0,11,-0.04849938
-1.9077016,-8.860899,-1.1129109,46.0,4,-0.048497077
-2.670433,-12.393131,-1.109144,42.0,5,-0.04849247
-4.4435453,-20.587002,-1.1037654,2.0,6,-0.04848786
-10.930266,-50.59724,11.95075,14.0,14,-0.048485555
-0.84231263,-3.869684,-1.0611582,27.0,0,-0.04846021
-10.9806185,-50.40393,0.90043944,19.0,8,-0.04845791
-0.963957,-4.421107,-1.0446726,32.0,1,-0.048455603
-1.2096602,-5.5433555,-1.1028761,30.0,2,-0.048450995
-1.4974811,-6.8508344,-1.1106849,28.0,3,-0.048446387
-1.9318265,-8.82316,-1.109011,43.0,4,-0.04844178
-2.7209287,-12.416819,-1.1121073,44.0,5,-0.04843717
-4.583037,-20.879595,-1.1203035,2.0,6,-0.048432563
-15.407298,-70.13477,16.577993,18.0,14,-0.04843026
-10.687891,-48.611347,-0.8687808,15.0,7,-0.048427954
-0.8478829,-3.8308825,-1.051323,20.0,0,-0.048404917
-11.202338,-50.572247,0.9041394,20.0,8,-0.04840261
-0.9861324,-4.448156,-1.0518711,30.0,1,-0.04840031
-1.217095,-5.4854336,-1.0921907,30.0,2,-0.0483957
-1.5316715,-6.8918457,-1.1181936,30.0,3,-0.048391093
-1.9725344,-8.860929,-1.1146171,39.0,4,-0.048386484
-2.7603545,-12.389744,-1.1105385,44.0,5,-0.048381876
-11.804119,-52.93877,10.54296,34.0,13,-0.04837957
-4.732452,-21.20655,-1.1387259,3.0,6,-0.048377268
-10.835708,-48.476166,-0.86703557,15.0,7,-0.04837266
-0.87312406,-3.8806717,-1.0658169,25.0,0,-0.04834962
-11.384066,-50.556248,0.90455824,10.0,8,-0.048347317
-1.0072224,-4.4694,-1.0577198,32.0,1,-0.04834501
-1.2474668,-5.5309453,-1.1021129,30.0,2,-0.048340403
-13.122326,-58.133724,5.214005,22.0,10,-0.0483381
-1.5713888,-6.955823,-1.129457,30.0,3,-0.048335794
-12.524947,-55.39722,6.9736085,14.0,11,-0.048333492
-2.0288632,-8.966286,-1.1287539,41.0,4,-0.048331186
-11.7525215,-51.896626,8.427752,14.0,12,-0.048328884
-2.8035848,-12.380033,-1.1105385,40.0,5,-0.04832658
-4.906297,-21.6301,-1.1623816,3.0,6,-0.048321974
-0.88967884,-3.890783,-1.0694402,27.0,0,-0.048294324
-11.377575,-49.716988,0.8902472,9.0,8,-0.04829202
-1.0349991,-4.5190444,-1.0703171,32.0,1,-0.048289716
-13.067786,-57.011242,3.0653174,12.0,9,-0.04828741
-1.2733448,-5.555261,-1.1078371,35.0,2,-0.048285108
-1.5890306,-6.9214163,-1.124764,30.0,3,-0.0482805
-12.632,-54.977837,6.926323,14.0,11,-0.048278198
-2.0837266,-9.061682,-1.141672,33.0,4,-0.04827589
-11.970824,-52.01699,8.454033,15.0,12,-0.04827359
-2.852146,-12.39347,-1.1126302,50.0,5,-0.048271284
-5.107381,-22.157785,-1.1916898,3.0,6,-0.048266675
-0.91199845,-3.9252887,-1.0797932,22.0,0,-0.048239026
-11.554222,-49.6906,0.8904916,38.0,8,-0.048236724
-1.0375168,-4.4584637,-1.0568202,26.0,1,-0.04823442
-13.153459,-56.478977,3.0391493,12.0,9,-0.048232116
-1.3051972,-5.604321,-1.1185224,35.0,2,-0.048229814
-13.392173,-57.458584,5.1617117,22.0,10,-0.048227508
-1.620809,-6.9485307,-1.1300827,30.0,3,-0.048225205
-2.1099253,-9.031158,-1.1387473,43.0,4,-0.048220597
-12.159513,-52.00566,8.459038,15.0,12,-0.04821829
-2.900832,-12.40672,-1.114722,46.0,5,-0.04821599
-5.2958126,-22.614317,-1.2172298,3.0,6,-0.04821138
-19.280836,-82.20428,-1.4738208,63.0,7,-0.048206773
-0.9208138,-3.9013987,-1.0740991,27.0,0,-0.04818373
-11.663249,-49.37751,0.8856049,28.0,8,-0.04818143
-1.0723503,-4.5363636,-1.0761659,30.0,1,-0.048179124
-13.495829,-57.0469,3.0722256,12.0,9,-0.04817682
-1.3224924,-5.590178,-1.1166143,32.0,2,-0.048174515
-1.6559838,-6.988962,-1.1375916,30.0,3,-0.048169907
-12.990777,-54.784004,6.913161,14.0,11,-0.048167605
-2.1675634,-9.13383,-1.1526403,39.0,4,-0.0481653
-13.252965,-55.80289,9.08415,17.0,12,-0.048162997
-2.9593163,-12.460487,-1.1204742,36.0,5,-0.04816069
-5.507826,-23.155293,-1.2473754,3.0,6,-0.048156083
-0.92857206,-3.8737388,-1.0673697,27.0,0,-0.048128437
-11.967547,-49.886795,0.89548296,19.0,8,-0.04812613
-1.0918187,-4.5477514,-1.0797651,26.0,1,-0.04812383
-13.649147,-56.809135,3.0619678,12.0,9,-0.048121523
-1.3456663,-5.6007996,-1.1196673,29.0,2,-0.04811922
-1.6877652,-7.013868,-1.1425974,30.0,3,-0.048114613
-13.212605,-54.865696,6.9292474,14.0,11,-0.048112307
-2.1882713,-9.079893,-1.1467906,41.0,4,-0.048110005
-3.0196095,-12.519809,-1.1267494,38.0,5,-0.048105396
-6.091816,-25.21907,-1.3596883,8.0,6,-0.04810079
-14.545553,-60.12413,-1.0797455,34.0,7,-0.04809618
-0.94208837,-3.8704739,-1.0673697,23.0,0,-0.04807314
-12.20361,-50.099236,0.9000555,19.0,8,-0.048070837
-1.1183014,-4.587458,-1.0901128,27.0,1,-0.04806853
-1.3656746,-5.5979753,-1.1200489,30.0,2,-0.048063923
-1.7248962,-7.059745,-1.151045,28.0,3,-0.048059314
-13.480425,-55.131626,6.9687333,14.0,11,-0.048057012
-2.2374105,-9.143542,-1.1558089,45.0,4,-0.048054706
-3.0604486,-12.497581,-1.1257036,40.0,5,-0.048050098
-6.205024,-25.300459,-1.3652358,20.0,6,-0.048045494
-14.767739,-60.12348,-1.080653,34.0,7,-0.048040885
-0.9625447,-3.8952932,-1.0751344,28.0,0,-0.048017845
-12.578595,-50.865818,0.9146108,20.0,8,-0.04801554
-1.1605233,-4.6894608,-1.1153073,40.0,1,-0.048013236
-15.175656,-61.27613,3.3083656,19.0,9,-0.04801093
-1.4050288,-5.673213,-1.1360768,29.0,2,-0.04800863
-1.720046,-6.934809,-1.131647,25.0,3,-0.04800402
-13.695739,-55.176716,6.980433,14.0,11,-0.048001718
-2.2803197,-9.179987,-1.161415,41.0,4,-0.04799941
-14.074865,-56.619568,9.240585,18.0,12,-0.04799711
-3.1112664,-12.515825,-1.1283183,40.0,5,-0.047994804
-13.343305,-53.636696,10.743692,35.0,13,-0.0479925
-6.3140473,-25.361984,-1.3697368,8.0,6,-0.047990195
-17.961416,-72.039314,-1.2959459,54.0,7,-0.047985587
-0.9742558,-3.8844147,-1.0730639,25.0,0,-0.047962546
-13.049625,-51.991142,0.93565845,43.0,8,-0.047960244
-1.1821084,-4.706171,-1.1202562,30.0,1,-0.047957942
-1.43296,-5.700642,-1.1425643,30.0,2,-0.047953334
-1.7804096,-7.072434,-1.1551123,31.0,3,-0.047948726
-13.87856,-55.090073,6.9755583,14.0,11,-0.04794642
-2.3167176,-9.189295,-1.1636086,43.0,4,-0.047944117
-3.1841788,-12.6208,-1.1387769,44.0,5,-0.04793951
-6.4221125,-25.417246,-1.3739237,12.0,6,-0.0479349
-0.99638665,-3.9146888,-1.0823812,27.0,0,-0.047907252
-13.225602,-51.923958,0.9352745,32.0,8,-0.04790495
-1.1994911,-4.7057934,-1.1211561,41.0,1,-0.047902644
-15.311815,-60.02687,3.2466092,16.0,9,-0.04790034
-1.448483,-5.678484,-1.1391298,32.0,2,-0.047898035
-1.8275756,-7.1542163,-1.1695042,31.0,3,-0.047893427
-13.379504,-52.337208,6.6328616,26.0,11,-0.047891125
-2.3512404,-9.190768,-1.1648273,41.0,4,-0.04788882
-3.224757,-12.596096,-1.1375568,38.0,5,-0.04788421
-6.5549397,-25.56686,-1.3832394,4.0,6,-0.047879603
-1.0119773,-3.9186692,-1.0844518,24.0,0,-0.047851957
-13.471309,-52.127228,0.9397772,11.0,8,-0.04784965
-1.227621,-4.746857,-1.1319537,39.0,1,-0.04784735
-15.5492735,-60.081337,3.2524707,51.0,9,-0.047845043
-1.4746898,-5.6981015,-1.1440908,34.0,2,-0.04784274
-1.8540251,-7.153529,-1.1704428,36.0,3,-0.047838133
-13.611954,-52.482346,6.6572356,13.0,11,-0.047835827
-2.4017591,-9.253598,-1.1738456,37.0,4,-0.047833525
-3.2677028,-12.580906,-1.1372081,40.0,5,-0.047828916
-1.011942,-3.8627868,-1.069958,28.0,0,-0.04784298
-13.328641,-50.841915,0.9174381,10.0,8,-0.047840677
-1.2436881,-4.7406583,-1.1315038,35.0,1,-0.04783837
-15.871491,-60.455555,3.275708,18.0,9,-0.04783607
-1.5070342,-5.740392,-1.1536313,38.0,2,-0.047833763
-1.8935496,-7.202418,-1.1795161,31.0,3,-0.047829155
-13.830418,-52.56889,6.674297,13.0,11,-0.047826853
-2.4087763,-9.149174,-1.1616586,39.0,4,-0.047824547
-3.3305545,-12.632421,-1.1429603,40.0,5,-0.04781994
-8.635809,-32.731483,-1.7740844,6.0,6,-0.04781533
-1.035525,-3.8945246,-1.0797932,27.0,0,-0.047787685
-13.432552,-50.518726,0.9124467,30.0,8,-0.04778538
-1.2707509,-4.775836,-1.1409518,37.0,1,-0.047783077
-1.5401952,-5.7803597,-1.1627901,38.0,2,-0.04777847
-16.033958,-60.13333,5.4447937,27.0,10,-0.047776163
-1.9087312,-7.15344,-1.1726329,31.0,3,-0.04777386
-13.999505,-52.46659,6.6674724,13.0,11,-0.047771554
-2.4867873,-9.313322,-1.1835952,43.0,4,-0.047769252
-3.3705125,-12.60532,-1.1415659,40.0,5,-0.047764644
-8.749517,-32.676456,-1.7728283,13.0,6,-0.047760036
-13.484489,-50.3248,-0.90941,19.0,7,-0.047755428
-1.0813001,-4.010261,-1.112922,30.0,0,-0.047732387
-13.662944,-50.637123,0.9154834,10.0,8,-0.047730085
-1.2897713,-4.77679,-1.1423014,35.0,1,-0.04772778
-16.059921,-59.47944,3.2288148,16.0,9,-0.047725476
-1.567532,-5.801482,-1.1681327,36.0,2,-0.04772317
-16.399776,-60.653996,5.497087,29.0,10,-0.04772087
-1.9496837,-7.205845,-1.1823319,38.0,3,-0.047718562
-14.407533,-53.212025,6.768868,13.0,11,-0.04771626
-2.550496,-9.413356,-1.1974882,45.0,4,-0.047713954
-3.4254405,-12.633861,-1.1452264,44.0,5,-0.047709346
-9.130419,-33.628735,-1.826211,14.0,6,-0.047704738
-13.631758,-50.17322,-0.9075252,18.0,7,-0.047700133
-1.1070098,-4.0493217,-1.1248276,28.0,0,-0.047677092
-1.2809218,-4.682263,-1.1207062,28.0,1,-0.047672484
-1.5877743,-5.795975,-1.1681327,33.0,2,-0.047667876
-1.986624,-7.246967,-1.1901536,35.0,3,-0.047663268
-16.384123,-59.726414,7.604404,21.0,11,-0.04766096
-2.589055,-9.431646,-1.2009006,45.0,4,-0.04765866
-3.4758575,-12.64488,-1.1473181,32.0,5,-0.04765405
-9.357364,-34.018078,-1.8490295,14.0,6,-0.047649443
-13.808936,-50.13304,-0.9076648,18.0,7,-0.047644835
-1.1255875,-4.0642467,-1.130004,33.0,0,-0.047621794
-14.53388,-52.44303,0.94989955,11.0,8,-0.04761949
-1.3097568,-4.7228317,-1.1315038,28.0,1,-0.047617186
-17.348522,-62.514397,3.400058,22.0,9,-0.047614884
-1.6085601,-5.7963533,-1.1692775,35.0,2,-0.047612578
-13.758578,-49.54468,4.4986305,17.0,10,-0.047610275
-2.0177276,-7.260924,-1.1935952,38.0,3,-0.047607973
