x,y,z,intensity,ring,time
19.843424,-0.96356213,2.439337,18.0,11,-0.06543052
3.5114312,-0.17112333,-0.43166125,38.0,4,-0.06542822
42.70204,-2.088478,6.7714233,8.0,12,-0.06542592
3.9740517,-0.19436355,-0.34810004,32.0,5,-0.06542361
4.5123286,-0.22226858,-0.23676789,22.0,6,-0.065419
38.787132,-1.9173653,8.96565,15.0,14,-0.0654167
5.2687173,-0.26137045,-0.092078894,33.0,7,-0.06541439
39.270344,-1.9549935,10.535488,21.0,15,-0.06541209
2.3615165,-0.12045571,-0.6335891,39.0,0,-0.065391354
6.508488,-0.33312243,0.11375479,45.0,8,-0.06538905
2.5728438,-0.1321355,-0.59477055,44.0,1,-0.06538675
8.108099,-0.41783273,0.42549136,22.0,9,-0.06538444
2.8782382,-0.14832355,-0.56021523,39.0,2,-0.06538214
11.130557,-0.5755361,0.97509843,2.0,10,-0.065379836
3.1543849,-0.16365817,-0.50027746,36.0,3,-0.06537753
19.746765,-1.0279723,2.4278812,16.0,11,-0.065375224
3.457288,-0.18058373,-0.4250803,29.0,4,-0.06537292
40.82045,-2.1393094,6.4741974,7.0,12,-0.06537062
3.9773283,-0.20844296,-0.34844866,29.0,5,-0.06536832
38.391407,-2.0187273,7.4728436,14.0,13,-0.06536601
4.687041,-0.24727799,-0.24597903,35.0,6,-0.065363705
38.90864,-2.0595446,8.995343,15.0,14,-0.0653614
5.2418137,-0.2783815,-0.09162514,25.0,7,-0.0653591
39.348164,-2.0965836,10.558265,21.0,15,-0.06535679
2.3668685,-0.12901364,-0.63514197,35.0,0,-0.065336056
6.4973025,-0.35529336,0.113580264,49.0,8,-0.065333754
2.5704212,-0.14100885,-0.5943207,36.0,1,-0.06533145
8.13451,-0.44766915,0.42695674,31.0,9,-0.06532915
2.871822,-0.15804593,-0.55907035,35.0,2,-0.06532684
11.204076,-0.618559,0.9817223,22.0,10,-0.06532454
3.1577392,-0.17488651,-0.5009032,33.0,3,-0.065322235
18.77186,-1.0429369,2.3084493,2.0,11,-0.06531993
3.5081692,-0.19552289,-0.43141752,37.0,4,-0.06531762
40.804848,-2.2813451,6.472946,7.0,12,-0.06531532
3.9328122,-0.21987833,-0.3446138,29.0,5,-0.06531302
38.519382,-2.160312,7.4991755,14.0,13,-0.06531072
4.60439,-0.25903767,-0.24168746,30.0,6,-0.06530841
38.55878,-2.1760237,8.91616,34.0,14,-0.065306105
5.2368174,-0.2964511,-0.09155533,31.0,7,-0.0653038
39.386894,-2.2365499,10.570688,21.0,15,-0.0653015
2.3664038,-0.13727477,-0.63514197,37.0,0,-0.065280765
6.3862247,-0.37158242,0.111660495,45.0,8,-0.065278456
2.5990946,-0.15168346,-0.6010692,34.0,1,-0.06527615
8.172775,-0.4783954,0.42905018,27.0,9,-0.06527385
2.8575335,-0.16726643,-0.55639905,41.0,2,-0.06527155
12.029258,-0.70624226,1.0542358,33.0,10,-0.06526924
3.182745,-0.18741757,-0.5049705,39.0,3,-0.06526694
18.799812,-1.1103292,2.312349,4.0,11,-0.065264635
3.5431345,-0.2098804,-0.4358048,37.0,4,-0.06526233
41.845684,-2.4860919,6.6393924,24.0,12,-0.06526002
3.9837315,-0.23667726,-0.3491459,33.0,5,-0.06525772
38.66055,-2.3036313,7.5281787,28.0,13,-0.06525542
4.6373515,-0.27713394,-0.2434669,31.0,6,-0.065253116
38.57624,-2.3121212,8.9220085,31.0,14,-0.065250814
5.249723,-0.31556907,-0.09179966,30.0,7,-0.065248504
39.193726,-2.3628616,10.520994,21.0,15,-0.0652462
2.3697667,-0.14577146,-0.63617724,49.0,0,-0.06522547
6.4008565,-0.39485726,0.11193974,45.0,8,-0.065223165
2.5752091,-0.15931118,-0.5956704,40.0,1,-0.065220855
8.364418,-0.5189167,0.43920338,26.0,9,-0.06521855
2.8706489,-0.17809102,-0.55907035,37.0,2,-0.06521625
11.062275,-0.6882262,0.9696948,8.0,10,-0.06521395
3.1643274,-0.19741926,-0.50215465,34.0,3,-0.06521164
18.900827,-1.1825155,2.3252673,6.0,11,-0.06520934
3.5621924,-0.22348996,-0.4382422,37.0,4,-0.065207034
41.832813,-2.6318972,6.638767,16.0,12,-0.06520473
3.9053316,-0.24570261,-0.34234774,28.0,5,-0.06520243
4.638349,-0.29344568,-0.24357156,30.0,6,-0.06519782
38.552376,-2.4457765,8.91841,31.0,14,-0.065195516
5.258568,-0.3345269,-0.091974184,31.0,7,-0.06519321
40.561783,-2.58747,10.890589,12.0,15,-0.065190904
2.3596046,-0.1534159,-0.6335891,52.0,0,-0.06517017
6.3854704,-0.41628733,0.1116954,49.0,8,-0.06516787
2.566859,-0.1677909,-0.59387076,47.0,1,-0.065165564
8.187174,-0.5366157,0.42999226,28.0,9,-0.06516326
2.8641324,-0.18772517,-0.5579255,33.0,2,-0.06516095
11.163187,-0.7336306,0.978759,27.0,10,-0.06515865
3.21881,-0.2121004,-0.51091504,33.0,3,-0.06515635
19.942432,-1.3175831,2.4539614,12.0,11,-0.065154046
3.517814,-0.23303625,-0.43287995,28.0,4,-0.065151736
41.770153,-2.7743707,6.630319,16.0,12,-0.065149434
3.9581263,-0.26289847,-0.34705415,29.0,5,-0.06514713
4.6771526,-0.312296,-0.245665,30.0,6,-0.06514252
42.877644,-2.8704805,9.921242,4.0,14,-0.06514022
5.229435,-0.3510058,-0.091485515,33.0,7,-0.065137915
2.3725457,-0.16257598,-0.6372125,43.0,0,-0.06511488
6.435848,-0.4421377,0.11260293,45.0,8,-0.06511257
2.5740342,-0.17728549,-0.5956704,43.0,1,-0.065110266
8.195213,-0.5658789,0.43051565,26.0,9,-0.065107964
2.8752112,-0.19853315,-0.56021523,41.0,2,-0.06510566
11.74691,-0.8131833,1.0301808,22.0,10,-0.06510335
3.1766667,-0.2204628,-0.50434476,28.0,3,-0.06510105
19.601059,-1.3637643,2.412526,12.0,11,-0.06509875
3.5902495,-0.250425,-0.4418983,29.0,4,-0.065096445
55.60343,-3.8881705,8.828223,16.0,12,-0.065094136
3.9194214,-0.27407265,-0.34374225,28.0,5,-0.06509183
38.579468,-2.7045054,7.5174932,14.0,13,-0.06508953
4.668065,-0.3280604,-0.24524632,30.0,6,-0.06508723
39.747364,-2.8003209,9.199148,8.0,14,-0.06508492
5.228178,-0.36925784,-0.091485515,36.0,7,-0.06508262
40.195866,-2.8460195,10.797414,11.0,15,-0.065080315
2.3777447,-0.17127313,-0.63876545,42.0,0,-0.06505958
6.4143205,-0.46316016,0.112253875,45.0,8,-0.06505728
2.6142163,-0.18922389,-0.60511833,39.0,1,-0.06505497
8.346573,-0.60561144,0.43857533,30.0,9,-0.065052666
2.8490453,-0.2067213,-0.5552542,38.0,2,-0.06505036
11.104139,-0.8076434,0.97405255,11.0,10,-0.06504806
3.156176,-0.23011366,-0.5012161,39.0,3,-0.06504575
19.202196,-1.4033822,2.3640218,14.0,11,-0.06504345
3.5814345,-0.26237565,-0.44092333,30.0,4,-0.06504115
55.538296,-4.0784774,8.820089,16.0,12,-0.065038845
3.9204276,-0.2878982,-0.34391654,29.0,5,-0.065036535
38.554127,-2.8380034,7.51444,28.0,13,-0.06503423
4.6828256,-0.34552872,-0.24608369,28.0,6,-0.06503193
39.07464,-2.8900328,9.045732,16.0,14,-0.06502963
5.2986493,-0.39282775,-0.092742085,36.0,7,-0.06502733
40.116337,-2.9811585,10.778779,11.0,15,-0.06502502
2.365574,-0.17869882,-0.6356596,33.0,0,-0.06501007
6.4106708,-0.4853965,0.112218976,33.0,8,-0.06500777
2.6193693,-0.19879046,-0.606468,33.0,1,-0.06500547
8.035726,-0.6112618,0.4223512,20.0,9,-0.06500316
2.8737552,-0.21860088,-0.56021523,46.0,2,-0.065000854
11.212503,-0.8548814,0.98381394,16.0,10,-0.06499855
3.1789892,-0.24293558,-0.5049705,45.0,3,-0.06499625
19.046753,-1.4588802,2.3454976,4.0,11,-0.06499394
3.5587246,-0.27320415,-0.4382422,31.0,4,-0.06499164
3.877682,-0.2983714,-0.34025604,31.0,5,-0.06498703
38.02331,-2.93241,7.41293,28.0,13,-0.064984724
4.6835823,-0.36202663,-0.24618836,28.0,6,-0.06498242
38.2308,-2.9618366,8.852723,11.0,14,-0.06498012
5.2713275,-0.40930858,-0.09228832,33.0,7,-0.06497782
39.223564,-3.0525224,10.5417,10.0,15,-0.06497551
2.3938234,-0.18923877,-0.64342415,38.0,0,-0.06495477
6.3969765,-0.5068233,0.11200955,40.0,8,-0.06495247
2.6147742,-0.20762405,-0.60556823,34.0,1,-0.06495017
8.156982,-0.6491313,0.42884085,23.0,9,-0.064947866
2.857318,-0.2273849,-0.5571623,50.0,2,-0.064945556
11.427921,-0.9114393,1.0029882,19.0,10,-0.064943254
3.162369,-0.25277168,-0.5024676,39.0,3,-0.06494095
18.93667,-1.5169557,2.3325794,6.0,11,-0.06493865
3.5617065,-0.28594244,-0.43872967,39.0,4,-0.06493634
3.8984628,-0.31366286,-0.34217343,27.0,5,-0.064931735
4.769884,-0.38545156,-0.25079393,35.0,6,-0.06492712
39.313793,-3.1838317,9.106019,28.0,14,-0.06492482
5.275846,-0.42819175,-0.09239304,39.0,7,-0.06492252
39.1472,-3.184095,10.5241,21.0,15,-0.06492022
2.3507917,-0.19409639,-0.63203615,44.0,0,-0.06489948
6.3533187,-0.5256871,0.111276545,40.0,8,-0.06489717
2.623744,-0.21755522,-0.60781777,41.0,1,-0.06489487
8.188504,-0.6804122,0.4306203,26.0,9,-0.06489257
2.8995502,-0.24093403,-0.5655579,40.0,2,-0.064890265
11.873397,-0.98868984,1.0423827,22.0,10,-0.064887956
3.1732788,-0.2647945,-0.50434476,55.0,3,-0.06488565
20.076632,-1.6788247,2.473704,12.0,11,-0.06488335
3.5349708,-0.29621848,-0.43556106,38.0,4,-0.06488105
3.9052856,-0.32793596,-0.34287068,28.0,5,-0.06487644
4.7386565,-0.39958188,-0.24922384,28.0,6,-0.06487183
39.259716,-3.3174326,9.096121,20.0,14,-0.06486953
5.3062005,-0.44930488,-0.092951514,36.0,7,-0.06486722
39.012646,-3.310271,10.490972,21.0,15,-0.06486492
2.3654978,-0.2036265,-0.63617724,46.0,0,-0.06484418
6.4909053,-0.5598906,0.11371988,54.0,8,-0.06484188
2.5957875,-0.22436312,-0.6015191,41.0,1,-0.06483957
8.076639,-0.6995127,0.4248633,28.0,9,-0.06483727
2.8673966,-0.24834345,-0.559452,44.0,2,-0.06483497
11.742838,-1.019105,1.0312268,19.0,10,-0.064832665
3.1979184,-0.27809444,-0.50841206,55.0,3,-0.064830355
20.632288,-1.7978344,2.5429258,17.0,11,-0.06482805
3.535893,-0.30872867,-0.4358048,36.0,4,-0.06482575
3.8723602,-0.3387876,-0.3400817,29.0,5,-0.06482115
4.673566,-0.41052794,-0.24587436,37.0,6,-0.064816535
39.6575,-3.490506,9.191051,12.0,14,-0.06481423
5.2886643,-0.46641883,-0.09267228,37.0,7,-0.06481193
38.831512,-3.4314659,10.445419,21.0,15,-0.06480962
2.3282137,-0.20860673,-0.6263421,43.0,0,-0.064788885
6.4948864,-0.5830811,0.1138246,45.0,8,-0.06478658
2.5814023,-0.23220062,-0.5983698,43.0,1,-0.06478428
7.974689,-0.71873724,0.41962975,22.0,9,-0.06478197
2.866512,-0.25835103,-0.559452,44.0,2,-0.06477967
11.366158,-1.026401,0.9984562,19.0,10,-0.06477737
3.1910264,-0.2887216,-0.50747347,58.0,3,-0.064775065
20.444002,-1.8533547,2.520502,17.0,11,-0.06477276
3.5802636,-0.32519948,-0.4414108,34.0,4,-0.06477045
3.9167905,-0.35645583,-0.34409088,28.0,5,-0.06476585
4.711884,-0.43047345,-0.2479678,30.0,6,-0.06476124
39.25501,-3.593211,9.100619,28.0,14,-0.064758934
5.3029346,-0.4863379,-0.092951514,37.0,7,-0.06475663
38.723114,-3.5581546,10.419538,20.0,15,-0.06475433
2.3101597,-0.21512039,-0.6216834,40.0,0,-0.06473359
6.540597,-0.61020714,0.11466231,49.0,8,-0.064731285
2.6407247,-0.24683218,-0.6123168,39.0,1,-0.06472898
8.232633,-0.7709649,0.43334177,32.0,9,-0.06472668
2.9085965,-0.27238262,-0.5678476,52.0,2,-0.06472438
11.382342,-1.0679312,1.0001993,19.0,10,-0.06472207
3.2057328,-0.3013375,-0.50997645,57.0,3,-0.06471977
20.275349,-1.9094443,2.5005155,16.0,11,-0.064717464
3.5435328,-0.3343385,-0.43702352,38.0,4,-0.06471516
3.9313908,-0.37162584,-0.34548536,28.0,5,-0.06471055
4.7043877,-0.44635245,-0.24765378,34.0,6,-0.064705946
39.17045,-3.7233915,9.083974,32.0,14,-0.064703636
5.3051863,-0.5052248,-0.09302133,37.0,7,-0.06470133
38.3066,-3.65477,10.310833,10.0,15,-0.06469903
2.3382382,-0.22597054,-0.62944794,44.0,0,-0.0646783
6.4369173,-0.6232064,0.11288217,40.0,8,-0.064675994
2.6262696,-0.25473163,-0.60916746,34.0,1,-0.064673685
8.28768,-0.8038528,0.43637723,31.0,9,-0.06467138
2.940847,-0.2857617,-0.5743351,48.0,2,-0.06466908
11.336903,-1.1036028,0.99653876,13.0,10,-0.06466678
3.194831,-0.3115671,-0.50841206,63.0,3,-0.06466447
20.244854,-1.9778907,2.4975905,16.0,11,-0.064662166
3.5562344,-0.34743857,-0.43872967,36.0,4,-0.06465986
48.274704,-4.7248697,7.682497,11.0,12,-0.06465756
4.0331793,-0.39545667,-0.35454956,47.0,5,-0.06465525
4.5318623,-0.44595018,-0.23865199,30.0,6,-0.06465065
39.074493,-3.8450587,9.064628,24.0,14,-0.064648345
5.309452,-0.52340317,-0.09312604,34.0,7,-0.064646035
38.259666,-3.778362,10.301517,20.0,15,-0.06464373
2.352854,-0.23526081,-0.6335891,44.0,0,-0.064623
6.542261,-0.6553109,0.11476702,51.0,8,-0.064620696
2.512948,-0.25215453,-0.5830731,44.0,1,-0.064618394
8.310802,-0.8339236,0.43773797,32.0,9,-0.064616084
2.9105818,-0.292567,-0.56861085,46.0,2,-0.06461378
11.077455,-1.115441,0.97405255,5.0,10,-0.06461148
3.2016418,-0.32295284,-0.5096635,77.0,3,-0.06460918
20.313234,-2.052598,2.5068526,12.0,11,-0.06460687
3.5175374,-0.35543773,-0.43409866,43.0,4,-0.064604566
40.88091,-4.1381145,6.5079875,23.0,12,-0.06460226
3.9981482,-0.4054121,-0.35158628,33.0,5,-0.06459996
4.4528656,-0.4530908,-0.23456979,23.0,6,-0.06459535
38.9452,-3.962777,9.037634,24.0,14,-0.06459305
5.2858033,-0.5387765,-0.092742085,37.0,7,-0.064590745
38.439114,-3.9248378,10.35328,20.0,15,-0.06458844
2.3462958,-0.2424661,-0.63203615,38.0,0,-0.0645677
6.5579534,-0.6788554,0.11508117,54.0,8,-0.0645654
2.6187074,-0.27154097,-0.60781777,41.0,1,-0.064563096
8.236326,-0.8555003,0.43396983,30.0,9,-0.06456079
2.8881156,-0.29998612,-0.5644131,45.0,2,-0.06455848
11.275826,-1.1732,0.9918323,8.0,10,-0.06455618
3.2123418,-0.3347967,-0.5115408,60.0,3,-0.06455388
20.126648,-2.1011906,2.4846723,12.0,11,-0.06455158
3.498506,-0.36585584,-0.431905,37.0,4,-0.06454927
40.779774,-4.2717357,6.494221,7.0,12,-0.064546965
3.9451888,-0.4139599,-0.34705415,28.0,5,-0.06454466
38.228687,-4.011251,7.4716988,14.0,13,-0.06454236
4.415585,-0.46409667,-0.23268569,21.0,6,-0.06454006
38.365227,-4.039118,8.906262,27.0,14,-0.06453775
5.3534937,-0.5645643,-0.09396376,33.0,7,-0.06453545
38.375225,-4.0537148,10.339821,10.0,15,-0.064533144
2.354996,-0.25209218,-0.6346243,46.0,0,-0.06451241
6.553556,-0.7015299,0.11504627,40.0,8,-0.0645101
2.6061177,-0.27943376,-0.60511833,37.0,1,-0.0645078
8.310738,-0.892563,0.43805203,31.0,9,-0.064505495
2.9084685,-0.31287944,-0.56861085,43.0,2,-0.06450319
11.731026,-1.2640402,1.0322726,19.0,10,-0.06450088
3.2032368,-0.34572038,-0.51028925,60.0,3,-0.06449858
20.202082,-2.1803794,2.4949093,12.0,11,-0.06449628
3.4814188,-0.37635884,-0.42995507,40.0,4,-0.06449398
40.049755,-4.336651,6.380337,7.0,12,-0.064491674
3.96947,-0.43052152,-0.34932023,32.0,5,-0.064489365
38.36987,-4.1683016,7.5022283,14.0,13,-0.06448706
4.479377,-0.48740706,-0.23613985,27.0,6,-0.06448476
38.34242,-4.1788616,8.904463,15.0,14,-0.06448246
5.339563,-0.58194804,-0.09375433,33.0,7,-0.06448015
38.39541,-4.191418,10.349138,20.0,15,-0.064477846
2.3368201,-0.25840017,-0.62996554,40.0,0,-0.06445711
6.5092015,-0.7209224,0.11431326,45.0,8,-0.06445481
2.6012022,-0.28855407,-0.60421854,39.0,1,-0.0644525
8.136853,-0.90262955,0.42905018,28.0,9,-0.0644502
2.8995535,-0.32216278,-0.5670844,42.0,2,-0.064447895
11.900797,-1.3243732,1.047612,22.0,10,-0.06444559
3.1823785,-0.35471144,-0.5071606,51.0,3,-0.06444329
20.215658,-2.256832,2.4975905,16.0,11,-0.06444098
3.5549822,-0.39749864,-0.43921715,40.0,4,-0.06443868
44.2512,-4.9479265,7.052379,9.0,12,-0.064436376
3.9441829,-0.44171393,-0.34722847,29.0,5,-0.064434074
38.29656,-4.295647,7.4907804,14.0,13,-0.064431764
4.6840644,-0.5262298,-0.24702574,39.0,6,-0.06442946
42.34006,-4.764165,9.836659,4.0,14,-0.06442716
5.3692937,-0.60416067,-0.09431281,33.0,7,-0.06442486
38.407425,-4.3284473,10.356386,20.0,15,-0.06442255
2.3224683,-0.26502246,-0.6263421,37.0,0,-0.06440181
6.5842605,-0.7513458,0.11567455,51.0,8,-0.06439951
2.5886142,-0.2958507,-0.6015191,41.0,1,-0.06439721
8.133653,-0.93102694,0.42905018,30.0,9,-0.064394906
2.8867085,-0.3309405,-0.56479466,44.0,2,-0.0643926
11.751606,-1.3493158,1.0348873,24.0,10,-0.064390294
3.226322,-0.37044528,-0.51435655,47.0,3,-0.06438799
20.212008,-2.3243105,2.498078,14.0,11,-0.06438569
3.4984272,-0.40292558,-0.43239245,42.0,4,-0.06438338
3.8278222,-0.4422171,-0.33711842,29.0,5,-0.064378776
38.188488,-4.4118047,7.472462,14.0,13,-0.06437647
4.704118,-0.544285,-0.24817713,33.0,6,-0.064374164
38.289856,-4.4370594,8.899064,27.0,14,-0.06437186
5.383043,-0.6247435,-0.09459204,31.0,7,-0.06436956
38.36521,-4.4593644,10.349138,10.0,15,-0.06436726
2.342682,-0.27520186,-0.63203615,44.0,0,-0.06434652
6.583584,-0.7745583,0.115709454,54.0,8,-0.06434421
2.5895011,-0.3051129,-0.601969,43.0,1,-0.06434191
8.225561,-0.97064805,0.43407446,27.0,9,-0.06433961
2.8777962,-0.3395911,-0.5632682,29.0,2,-0.064337306
11.788618,-1.3931886,1.0385478,22.0,10,-0.064334996
3.2093155,-0.37984756,-0.51185364,57.0,3,-0.064332694
20.771502,-2.4621453,2.5682747,12.0,11,-0.06433039
3.400408,-0.40366843,-0.42044926,27.0,4,-0.06432809
3.9370463,-0.46876746,-0.34687987,28.0,5,-0.06432348
4.694257,-0.5597562,-0.24775843,35.0,6,-0.06431887
38.239304,-4.5665298,8.890965,19.0,14,-0.06431656
5.364945,-0.64163035,-0.09431281,31.0,7,-0.06431426
39.749657,-4.76097,10.727015,11.0,15,-0.06431196
2.3531644,-0.28518093,-0.63514197,37.0,0,-0.064291224
6.533196,-0.79176056,0.11487174,54.0,8,-0.06428892
2.5845513,-0.3136805,-0.6010692,40.0,1,-0.06428661
8.210227,-0.9979088,0.43344644,21.0,9,-0.06428431
2.835606,-0.34515482,-0.5552542,34.0,2,-0.06428201
11.708278,-1.4272254,1.0319239,19.0,10,-0.064279705
3.2137845,-0.39232582,-0.5127922,51.0,3,-0.064277396
20.390366,-2.4891734,2.5222082,6.0,11,-0.06427509
3.4994698,-0.42782104,-0.43287995,42.0,4,-0.06427279
46.679256,-5.714953,7.4484715,22.0,12,-0.06427049
3.939341,-0.48299235,-0.34722847,28.0,5,-0.06426818
38.09748,-4.6777825,7.461014,14.0,13,-0.06426588
4.4067183,-0.54185766,-0.23268569,21.0,6,-0.064263575
38.317078,-4.718323,8.913011,31.0,14,-0.06426127
5.354734,-0.6593761,-0.094173186,33.0,7,-0.06425897
38.528713,-4.75121,10.401938,10.0,15,-0.06425666
2.3272338,-0.29028478,-0.62841266,42.0,0,-0.064235926
6.567951,-0.82040995,0.11553493,54.0,8,-0.06423362
2.5930526,-0.3243606,-0.60331875,39.0,1,-0.06423132
8.36722,-1.0466416,0.44192484,28.0,9,-0.06422901
2.898669,-0.3631035,-0.5678476,33.0,2,-0.06422671
11.246561,-1.410801,0.991658,8.0,10,-0.06422441
3.2123954,-0.4035416,-0.5127922,48.0,3,-0.064222105
20.371256,-2.5626523,2.5209894,19.0,11,-0.064219795
3.5136344,-0.44262922,-0.43482983,42.0,4,-0.06421749
3.965305,-0.50023144,-0.34966883,32.0,5,-0.06421289
4.7238154,-0.5975943,-0.24953786,35.0,6,-0.06420828
38.257847,-4.846658,8.903113,31.0,14,-0.064205974
5.3504157,-0.67781216,-0.09413828,30.0,7,-0.06420367
38.527225,-4.8876166,10.406078,20.0,15,-0.06420137
2.3530324,-0.30184782,-0.6356596,42.0,0,-0.06418063
6.525526,-0.8370968,0.114836834,56.0,8,-0.064178325
2.601627,-0.33419922,-0.60556823,40.0,1,-0.06417602
8.411058,-1.081958,0.444437,30.0,9,-0.06417372
2.9129612,-0.37522608,-0.57090056,41.0,2,-0.06417142
11.283065,-1.455403,0.99531853,11.0,10,-0.06416911
3.1973255,-0.41242313,-0.5106022,49.0,3,-0.06416681
20.366583,-2.6306999,2.521477,19.0,11,-0.064164504
3.5121472,-0.4542784,-0.43482983,48.0,4,-0.0641622
3.9951484,-0.5181702,-0.35245782,38.0,5,-0.06415759
39.07717,-5.0683036,7.6594553,14.0,13,-0.06415529
4.775285,-0.6202012,-0.252364,31.0,6,-0.064152986
37.980682,-4.93957,8.842376,11.0,14,-0.064150676
5.302409,-0.6905449,-0.093335465,28.0,7,-0.064148374
38.69192,-5.0458055,10.4552555,21.0,15,-0.06414607
2.3807483,-0.31343147,-0.64342415,39.0,0,-0.06412534
6.5423894,-0.8624835,0.11518589,54.0,8,-0.064123034
2.5733967,-0.339708,-0.59926957,40.0,1,-0.064120725
8.322089,-1.1000571,0.43993607,27.0,9,-0.06411842
2.9097548,-0.38462654,-0.570519,37.0,2,-0.06411612
11.408538,-1.510066,1.0068232,16.0,10,-0.06411382
3.2036994,-0.42461953,-0.51185364,49.0,3,-0.06411151
20.908272,-2.774904,2.5897238,13.0,11,-0.064109206
3.514476,-0.4670584,-0.43531734,46.0,4,-0.064106904
3.9420588,-0.52458245,-0.34792572,29.0,5,-0.06410229
39.086487,-5.2083073,7.664798,14.0,13,-0.06409999
4.5691805,-0.60965884,-0.2415828,27.0,6,-0.06409769
38.51757,-5.146183,8.9714985,31.0,14,-0.064095385
5.3019485,-0.7093147,-0.09337038,31.0,7,-0.064093076
39.82483,-5.334992,10.7663555,11.0,15,-0.06409077
2.4006984,-0.3245872,-0.6491182,43.0,0,-0.06407004
6.4897985,-0.8786086,0.11431326,54.0,8,-0.064067736
2.5895753,-0.35104477,-0.60331875,36.0,1,-0.064065434
8.2707,-1.1226526,0.43742397,31.0,9,-0.064063124
2.898667,-0.39346078,-0.56861085,42.0,2,-0.06406082
11.322253,-1.5388782,0.99967635,24.0,10,-0.06405852
3.245259,-0.44166034,-0.5187368,43.0,3,-0.06405622
19.934668,-2.716533,2.4702919,2.0,11,-0.06405391
3.4970891,-0.47717634,-0.43336743,42.0,4,-0.064051606
4.0527244,-0.553713,-0.3578615,35.0,5,-0.064047
38.7763,-5.304797,7.6075554,14.0,13,-0.06404469
4.646176,-0.6364469,-0.24576966,28.0,6,-0.06404239
38.424072,-5.270275,8.953952,19.0,14,-0.06404009
5.333119,-0.73244303,-0.09396376,30.0,7,-0.064037785
38.839478,-5.341066,10.504948,21.0,15,-0.064035475
2.3957238,-0.33243415,-0.6480829,42.0,0,-0.06401474
6.522344,-0.9062104,0.11494155,49.0,8,-0.06401244
2.574823,-0.3582023,-0.6001694,47.0,1,-0.064010136
8.199473,-1.1421472,0.4338651,20.0,9,-0.06400783
2.8894982,-0.40249318,-0.5670844,39.0,2,-0.064005524
11.466783,-1.5993078,1.0129241,24.0,10,-0.06400322
3.2182646,-0.44943398,-0.5146695,52.0,3,-0.06400092
20.109865,-2.8119419,2.4932032,2.0,11,-0.06399862
3.5897665,-0.50259215,-0.44506687,29.0,4,-0.06399631
46.044216,-6.454704,7.363997,10.0,12,-0.063994005
3.9441233,-0.55360836,-0.34844866,28.0,5,-0.0639917
38.79254,-5.4450316,7.614424,29.0,13,-0.0639894
4.7566614,-0.66850525,-0.251736,33.0,6,-0.06398709
38.611927,-5.433425,9.002091,8.0,14,-0.06398479
5.294887,-0.74603266,-0.093335465,28.0,7,-0.06398249
39.08649,-5.514119,10.5769,21.0,15,-0.063980184
2.4021394,-0.34230277,-0.65015346,43.0,0,-0.06395945
6.5290394,-0.93038243,0.115116075,47.0,8,-0.06395714
2.5774152,-0.36773846,-0.6010692,47.0,1,-0.06395484
8.343725,-1.1919456,0.4417155,36.0,9,-0.063952535
2.8646817,-0.4097452,-0.56250495,38.0,2,-0.06395023
11.447039,-1.6393478,1.0117038,22.0,10,-0.06394792
3.2283278,-0.46290874,-0.51654667,54.0,3,-0.06394562
19.942728,-2.8595805,2.473704,2.0,11,-0.06394332
3.5310063,-0.5069387,-0.43799844,33.0,4,-0.06394102
41.309185,-5.9380255,6.6099825,8.0,12,-0.06393871
3.8238425,-0.55034286,-0.33798996,37.0,5,-0.063936405
39.009388,-5.621339,7.6609817,14.0,13,-0.0639341
4.6494093,-0.6708185,-0.24618836,22.0,6,-0.0639318
39.60047,-5.7206264,9.2373905,4.0,14,-0.0639295
5.3140216,-0.7676558,-0.09371942,28.0,7,-0.06392719
40.00386,-5.786027,10.830542,11.0,15,-0.06392489
2.4372497,-0.3559907,-0.6599886,45.0,0,-0.06390415
6.5572443,-0.9589361,0.11567455,49.0,8,-0.06390185
2.5779781,-0.37746498,-0.6015191,48.0,1,-0.06389954
8.377063,-1.2265611,0.4437043,27.0,9,-0.06389724
2.8884866,-0.42344427,-0.567466,30.0,2,-0.063894935
11.433361,-1.6781379,1.0110066,19.0,10,-0.06389263
3.1778326,-0.4669948,-0.5087249,34.0,3,-0.06389032
21.11441,-3.106609,2.6204348,15.0,11,-0.06388802
3.4624414,-0.5094365,-0.42971134,30.0,4,-0.06388572
49.410217,-7.278643,7.910266,12.0,12,-0.06388342
3.8081007,-0.56165224,-0.3367698,33.0,5,-0.063881114
39.21094,-5.790168,7.704486,15.0,13,-0.063878804
4.6885314,-0.69317824,-0.24838647,37.0,6,-0.0638765
39.577427,-5.8513446,9.23649,16.0,14,-0.0638742
5.301419,-0.7847364,-0.0935449,24.0,7,-0.0638719
39.494213,-5.853129,10.698028,11.0,15,-0.06386959
2.4570727,-0.36721194,-0.6656826,44.0,0,-0.06384885
6.516452,-0.97505295,0.11501136,47.0,8,-0.06384655
2.580567,-0.38658923,-0.60241896,45.0,1,-0.06384425
8.432204,-1.2632105,0.44684443,35.0,9,-0.06384195
2.9045403,-0.43564132,-0.57090056,35.0,2,-0.06383964
11.48093,-1.7240316,1.015713,27.0,10,-0.063837335
3.2133818,-0.48311034,-0.5146695,41.0,3,-0.06383503
21.178587,-3.1878378,2.6296968,15.0,11,-0.06383273
3.45877,-0.5206201,-0.4294676,42.0,4,-0.06383042
49.358467,-7.4383326,7.9058857,12.0,12,-0.06382812
3.8416789,-0.5796277,-0.33990738,32.0,5,-0.063825816
38.74504,-5.8527203,7.616714,14.0,13,-0.06382351
4.7434764,-0.7173833,-0.25142196,46.0,6,-0.063821204
39.51734,-5.976436,9.227042,12.0,14,-0.0638189
5.3422847,-0.8088984,-0.09431281,27.0,7,-0.0638166
39.715252,-6.0205483,10.763249,23.0,15,-0.0638143
2.4424736,-0.3733147,-0.6620591,45.0,0,-0.06379356
6.5902734,-1.0084535,0.116372645,52.0,8,-0.06379125
2.5850494,-0.39602986,-0.6037686,43.0,1,-0.06378895
8.305568,-1.272414,0.4403548,23.0,9,-0.06378665
2.8681495,-0.4399132,-0.5640314,34.0,2,-0.063784346
11.418041,-1.7533247,1.010658,22.0,10,-0.06378204
3.1688082,-0.4871601,-0.50778633,52.0,3,-0.063779734
20.336016,-3.1300123,2.5263517,12.0,11,-0.06377743
3.5492382,-0.54628,-0.44092333,34.0,4,-0.06377513
3.8062613,-0.58719975,-0.3369441,28.0,5,-0.06377052
38.934963,-6.013535,7.657929,14.0,13,-0.063768215
4.739097,-0.73280406,-0.25131726,38.0,6,-0.06376591
40.739483,-6.299525,9.517229,13.0,14,-0.0637636
5.341549,-0.8269155,-0.09434771,33.0,7,-0.0637613
39.874516,-6.1800275,10.811907,11.0,15,-0.063759
2.418318,-0.3778337,-0.6558475,45.0,0,-0.063738264
6.5572586,-1.0256667,0.11584908,42.0,8,-0.06373596
2.6087506,-0.40851942,-0.60961735,45.0,1,-0.06373365
8.21448,-1.2863533,0.4357492,30.0,9,-0.06373135
2.8783123,-0.45124632,-0.56632113,37.0,2,-0.06372905
11.327527,-1.7778946,1.0031625,13.0,10,-0.063726746
3.1671753,-0.49766552,-0.50778633,48.0,3,-0.063724436
21.341309,-3.3572257,2.6526084,16.0,11,-0.06372213
3.4395533,-0.54108006,-0.42751768,32.0,4,-0.06371983
39.180664,-6.170563,6.282096,7.0,12,-0.06371753
3.808229,-0.6004392,-0.3372927,31.0,5,-0.06371522
38.76743,-6.119352,7.628926,14.0,13,-0.06371292
4.7090225,-0.7441509,-0.24985188,33.0,6,-0.063710615
39.39022,-6.2247033,9.206797,4.0,14,-0.06370831
5.356554,-0.84743655,-0.094661854,27.0,7,-0.06370601
39.449295,-6.248155,10.702168,11.0,15,-0.0637037
2.3919845,-0.38356206,-0.6491182,49.0,0,-0.063667774
6.56296,-1.0535657,0.1160236,49.0,8,-0.06366547
2.5993934,-0.41775146,-0.60781777,45.0,1,-0.06366317
8.380811,-1.3468896,0.44485566,30.0,9,-0.06366086
2.8629093,-0.46061397,-0.56364983,42.0,2,-0.06365856
11.334068,-1.8255695,1.0043827,19.0,10,-0.063656256
3.167102,-0.5106898,-0.5080992,49.0,3,-0.06365395
21.292387,-3.437174,2.648221,19.0,11,-0.06365164
3.4451926,-0.5561484,-0.42849267,37.0,4,-0.06364934
39.108776,-6.320231,6.274587,7.0,12,-0.06364704
3.866759,-0.6255858,-0.34269637,29.0,5,-0.06364474
38.72317,-6.2717853,7.6251097,29.0,13,-0.06364243
4.4832163,-0.7269256,-0.23802395,27.0,6,-0.063640125
40.230545,-6.5231323,9.409253,17.0,14,-0.06363782
5.3136315,-0.86252415,-0.09396376,25.0,7,-0.06363552
2.4212031,-0.3964872,-0.6574004,44.0,0,-0.063612476
6.5475903,-1.0733825,0.115814164,49.0,8,-0.063610174
2.594148,-0.42573786,-0.606918,56.0,1,-0.06360787
8.244249,-1.3530025,0.43784264,28.0,9,-0.06360557
2.859429,-0.4697869,-0.5632682,37.0,2,-0.06360326
11.308293,-1.8599112,1.0026397,19.0,10,-0.06360096
3.1536963,-0.5192639,-0.50622195,47.0,3,-0.063598655
21.273035,-3.5064714,2.647246,19.0,11,-0.06359635
3.4217837,-0.56401855,-0.42581153,39.0,4,-0.06359404
46.10213,-7.6073594,7.400603,21.0,12,-0.06359174
3.8292801,-0.63256,-0.33955875,28.0,5,-0.06358944
38.94234,-6.43988,7.6724305,29.0,13,-0.06358714
4.445313,-0.73591685,-0.23613985,42.0,6,-0.06358483
40.135628,-6.6444106,9.392157,17.0,14,-0.063582525
5.279178,-0.8749088,-0.09340528,28.0,7,-0.06358022
39.859825,-6.613047,10.826401,23.0,15,-0.06357792
2.3874826,-0.39909923,-0.6486005,46.0,0,-0.063557185
6.4828544,-1.0848577,0.114732124,56.0,8,-0.063554876
2.583112,-0.4327282,-0.60466844,46.0,1,-0.06355257
8.217809,-1.3781385,0.43669128,30.0,9,-0.06355027
2.8636642,-0.48024064,-0.5644131,41.0,2,-0.06354797
11.254905,-1.8894837,0.9984562,8.0,10,-0.06354566
3.214295,-0.54019564,-0.5162338,49.0,3,-0.06354336
21.304358,-3.5842419,2.6526084,16.0,11,-0.063541055
3.3806438,-0.5693657,-0.42093676,30.0,4,-0.06353875
46.221386,-7.792871,7.424068,11.0,12,-0.06353644
3.886101,-0.655192,-0.3447881,29.0,5,-0.06353414
39.135654,-6.6052494,7.71479,15.0,13,-0.06353184
4.423155,-0.7473266,-0.23509313,33.0,6,-0.063529536
39.349377,-6.655448,9.213545,12.0,14,-0.063527234
5.329325,-0.90234464,-0.09434771,31.0,7,-0.063524924
39.82507,-6.7502055,10.823295,11.0,15,-0.06352262
2.4184482,-0.41295847,-0.6574004,41.0,0,-0.06350189
6.4947968,-1.110176,0.11501136,49.0,8,-0.063499585
2.5835063,-0.44207096,-0.60511833,44.0,1,-0.063497275
8.268068,-1.4162574,0.43962207,30.0,9,-0.06349497
2.831009,-0.48493037,-0.5583072,41.0,2,-0.06349267
11.860925,-2.0338173,1.0528414,16.0,10,-0.06349037
3.2201774,-0.5527491,-0.51748526,47.0,3,-0.06348806
21.585182,-3.7090125,2.6891692,16.0,11,-0.06348576
3.3453774,-0.57544214,-0.41679317,29.0,4,-0.063483454
39.89429,-6.8694305,6.4116235,7.0,12,-0.06348115
3.8680828,-0.66604835,-0.34339362,29.0,5,-0.06347885
4.4598823,-0.76955384,-0.23718657,33.0,6,-0.06347424
39.42384,-6.80968,9.23649,16.0,14,-0.063471936
5.35373,-0.92571205,-0.094836384,31.0,7,-0.06346963
40.01446,-6.9260826,10.881271,23.0,15,-0.063467324
2.4188948,-0.4217297,-0.65791804,37.0,0,-0.06344659
6.439664,-1.1239012,0.11410383,42.0,8,-0.06344429
2.5877066,-0.45209253,-0.606468,43.0,1,-0.063441984
8.225694,-1.4385723,0.4376333,30.0,9,-0.063439675
2.8002906,-0.4897363,-0.55258286,35.0,2,-0.06343737
11.7517,-2.0573413,1.0437772,15.0,10,-0.06343507
3.23574,-0.5670551,-0.5203011,50.0,3,-0.06343277
21.001171,-3.6841795,2.6179974,20.0,11,-0.063430466
3.4411073,-0.6042834,-0.42898014,37.0,4,-0.063428156
3.7832012,-0.66571885,-0.33607253,29.0,5,-0.06342355
42.41042,-7.4628377,8.37041,20.0,13,-0.06342125
4.447335,-0.7833847,-0.23666322,30.0,6,-0.06341894
39.866177,-7.029483,9.345817,12.0,14,-0.06341664
5.3819737,-0.9499557,-0.09539485,31.0,7,-0.063414335
40.24496,-7.1107583,10.950634,12.0,15,-0.06341203
2.3888042,-0.4255108,-0.65015346,42.0,0,-0.06339129
6.4947634,-1.1568935,0.11515098,47.0,8,-0.06338899
2.5918684,-0.46214882,-0.60781777,37.0,1,-0.063386686
8.318932,-1.4848237,0.44286692,27.0,9,-0.063384384
2.8351972,-0.5065573,-0.55983365,42.0,2,-0.06338208
11.4342,-2.0449781,1.016236,11.0,10,-0.06337977
3.2103062,-0.57473344,-0.51654667,55.0,3,-0.06337747
21.824509,-3.9071894,2.7223177,30.0,11,-0.06337517
3.4975958,-0.6267963,-0.4362923,32.0,4,-0.063372865
39.864803,-7.1512628,6.414752,7.0,12,-0.063370556
3.8985157,-0.70004886,-0.3465312,29.0,5,-0.06336825
4.503404,-0.8102903,-0.23980337,45.0,6,-0.06336365
39.47767,-7.110267,9.260785,16.0,14,-0.06336134
5.3707533,-0.9673187,-0.09525523,33.0,7,-0.06335904
38.915672,-7.016059,10.595535,11.0,15,-0.063356735
2.370198,-0.430738,-0.64549476,46.0,0,-0.063336
6.5003166,-1.1824797,0.1153255,49.0,8,-0.0633337
2.5594816,-0.46605963,-0.6006193,45.0,1,-0.06333139
8.319328,-1.5163784,0.44318092,30.0,9,-0.063329086
2.8372746,-0.517155,-0.5605969,44.0,2,-0.06332678
11.670037,-2.1292226,1.0378506,19.0,10,-0.06332448
3.21994,-0.5880654,-0.51842386,55.0,3,-0.06332217
21.815899,-3.988225,2.723049,30.0,11,-0.06331987
3.5069911,-0.6417554,-0.43775472,42.0,4,-0.06331757
47.074238,-8.622755,7.5798764,11.0,12,-0.063315265
3.8529332,-0.7057554,-0.34269637,28.0,5,-0.063312955
4.4926906,-0.824563,-0.2393847,45.0,6,-0.06330835
39.360607,-7.231125,9.23919,4.0,14,-0.06330605
5.3966722,-0.9924221,-0.09577881,30.0,7,-0.06330374
38.8593,-7.1530495,10.587253,22.0,15,-0.06330144
2.380077,-0.44112116,-0.6486005,47.0,0,-0.0632807
6.500081,-1.2058924,0.115395315,49.0,8,-0.0632784
2.5252674,-0.4689424,-0.59297097,43.0,1,-0.0632761
8.21973,-1.5278889,0.4381567,30.0,9,-0.06327379
2.837382,-0.5274145,-0.5609785,37.0,2,-0.063271485
11.693873,-2.1757767,1.0406395,19.0,10,-0.06326918
3.2178676,-0.5993015,-0.51842386,63.0,3,-0.06326688
21.799892,-4.0639887,2.722805,25.0,11,-0.06326457
3.4813125,-0.6496234,-0.43482983,42.0,4,-0.06326227
3.9170356,-0.73163813,-0.34862295,37.0,5,-0.063257664
4.438742,-0.83068794,-0.23666322,40.0,6,-0.06325305
39.34662,-7.3706274,9.241889,4.0,14,-0.06325075
5.3381424,-1.000935,-0.09480147,30.0,7,-0.06324845
39.00877,-7.321435,10.634874,11.0,15,-0.063246146
2.4013019,-0.4537307,-0.6548122,49.0,0,-0.0632254
6.5449533,-1.237865,0.11626793,45.0,8,-0.0632231
2.5408475,-0.48101676,-0.5970201,48.0,1,-0.0632208
8.377497,-1.5859733,0.44684443,31.0,9,-0.0632185
2.7622247,-0.5234258,-0.54647696,37.0,2,-0.06321619
11.611822,-2.2024736,1.0340157,16.0,10,-0.063213885
3.202171,-0.60795116,-0.5162338,46.0,3,-0.06321158
21.867481,-4.1556253,2.733042,25.0,11,-0.06320928
3.465488,-0.6585701,-0.43312368,34.0,4,-0.06320697
41.38289,-7.871753,6.671931,41.0,12,-0.06320467
3.8753135,-0.73785365,-0.34513673,32.0,5,-0.063202366
40.719276,-7.760252,8.057483,17.0,13,-0.063200064
4.4711294,-0.85291356,-0.23854731,40.0,6,-0.06319776
39.279846,-7.4930315,9.231991,12.0,14,-0.06319545
5.389792,-1.0291328,-0.09577881,30.0,7,-0.06319315
38.946327,-7.4435,10.624522,22.0,15,-0.06319085
2.401681,-0.46205613,-0.6553298,51.0,0,-0.06317011
6.530995,-1.2576714,0.11609341,49.0,8,-0.0631678
2.5277574,-0.4872269,-0.5943207,48.0,1,-0.0631655
8.209416,-1.5823703,0.4381567,25.0,9,-0.0631632
2.851076,-0.55006284,-0.5644131,28.0,2,-0.0631609
11.494905,-2.2198124,1.0242543,19.0,10,-0.06315859
3.2195323,-0.62231547,-0.5193625,43.0,3,-0.063156284
21.572931,-4.173819,2.6979437,16.0,11,-0.06315398
3.457438,-0.6689272,-0.43239245,40.0,4,-0.06315168
3.910009,-0.7579043,-0.34844866,29.0,5,-0.06314707
39.575478,-7.6783576,7.836144,16.0,13,-0.063144766
4.4957256,-0.8730662,-0.24001274,28.0,6,-0.06314246
39.275826,-7.627333,9.236939,8.0,14,-0.06314016
5.3451276,-1.0389876,-0.095045805,33.0,7,-0.06313785
39.05796,-7.599174,10.661792,22.0,15,-0.06313555
2.4001355,-0.47001788,-0.6553298,51.0,0,-0.063114814
6.5169764,-1.2773988,0.11591888,51.0,8,-0.06311251
2.545251,-0.4993583,-0.59881973,45.0,1,-0.0631102
8.22344,-1.6148653,0.43920338,28.0,9,-0.0631079
2.8048315,-0.55130285,-0.5556358,34.0,2,-0.0631056
11.436653,-2.247928,1.0197222,22.0,10,-0.063103296
3.209698,-0.6314631,-0.51811105,47.0,3,-0.06310099
21.767376,-4.2863727,2.7240238,20.0,11,-0.063098684
3.5135107,-0.69250804,-0.43970463,40.0,4,-0.06309638
3.835018,-0.7572675,-0.34199914,28.0,5,-0.06309178
39.6717,-7.840818,7.860568,16.0,13,-0.06308947
4.482854,-0.88681585,-0.23948936,28.0,6,-0.063087165
39.398075,-7.7938833,9.272033,8.0,14,-0.06308486
5.384624,-1.0661843,-0.095813714,31.0,7,-0.06308256
38.97435,-7.7241983,10.646263,22.0,15,-0.06308025
2.4059746,-0.4803245,-0.6574004,50.0,0,-0.063059516
6.4926414,-1.2973578,0.11556984,42.0,8,-0.063057214
2.533849,-0.5067729,-0.5965702,44.0,1,-0.06305491
8.393723,-1.6802784,0.44862387,30.0,9,-0.06305261
2.8932664,-0.57970726,-0.57357186,29.0,2,-0.0630503
11.553364,-2.3148816,1.0308782,22.0,10,-0.063048
3.174436,-0.6366199,-0.5127922,50.0,3,-0.063045695
21.895544,-4.3950353,2.7420607,25.0,11,-0.06304339
3.493433,-0.7018619,-0.43751097,43.0,4,-0.06304108
3.9025326,-0.7854711,-0.34827435,29.0,5,-0.06303648
40.289356,-8.116442,7.988792,17.0,13,-0.06303418
4.4893627,-0.9052143,-0.24001274,31.0,6,-0.06303187
39.29856,-7.9239798,9.255386,28.0,14,-0.063029565
5.3728395,-1.0843303,-0.0956741,31.0,7,-0.06302726
39.127563,-7.9037147,10.695956,11.0,15,-0.06302496
2.4174495,-0.49183562,-0.66102386,49.0,0,-0.063004225
6.4976406,-1.3231409,0.11574436,45.0,8,-0.063001916
2.5434313,-0.51839155,-0.59926957,44.0,1,-0.06299961
8.291616,-1.6914701,0.44349492,21.0,9,-0.06299731
2.8315928,-0.5776382,-0.5617417,27.0,2,-0.06299501
11.661929,-2.381126,1.0413368,19.0,10,-0.0629927
3.1430507,-0.64231783,-0.5080992,33.0,3,-0.0629904
21.98042,-4.495942,2.754735,22.0,11,-0.062988095
3.5316772,-0.7230223,-0.4426295,40.0,4,-0.06298579
3.9056222,-0.80028844,-0.3487973,41.0,5,-0.06298118
40.549263,-8.316194,8.046035,17.0,13,-0.06297888
4.386396,-0.9003977,-0.23467445,25.0,6,-0.06297658
39.110825,-8.035413,9.218044,37.0,14,-0.06297427
5.4040856,-1.1112655,-0.096302375,34.0,7,-0.062971964
39.59787,-8.149885,10.832612,11.0,15,-0.06296966
2.4176097,-0.5006629,-0.6615415,51.0,0,-0.06294893
6.48515,-1.3441905,0.11560474,42.0,8,-0.062946625
2.5454226,-0.52805835,-0.6001694,44.0,1,-0.062944315
8.354107,-1.7346147,0.44715846,32.0,9,-0.06294201
2.8699262,-0.5959005,-0.5697557,47.0,2,-0.06293971
11.58527,-2.4076302,1.0352359,24.0,10,-0.06293741
3.1407895,-0.65328515,-0.5080992,43.0,3,-0.0629351
21.966534,-4.5730453,2.7549787,22.0,11,-0.0629328
3.5388484,-0.7373704,-0.4438482,38.0,4,-0.062930495
49.193245,-10.259085,7.9590735,13.0,12,-0.06292819
3.898904,-0.8131032,-0.34844866,43.0,5,-0.06292588
4.406687,-0.9206048,-0.23593052,42.0,6,-0.06292128
39.179817,-8.192227,9.24099,20.0,14,-0.062918976
5.3982162,-1.1297128,-0.09626748,30.0,7,-0.06291667
39.206142,-8.212017,10.733226,22.0,15,-0.062914364
2.3931632,-0.50431854,-0.6553298,51.0,0,-0.06289363
6.4862885,-1.3680576,0.115709454,47.0,8,-0.06289133
2.520683,-0.5321103,-0.59477055,44.0,1,-0.062889025
8.311179,-1.7544703,0.4451697,26.0,9,-0.062886715
2.9350588,-0.6201191,-0.58311236,42.0,2,-0.06288441
11.660615,-2.4657805,1.0427313,22.0,10,-0.06288211
3.2080624,-0.6789692,-0.5193625,41.0,3,-0.06287981
21.730991,-4.603211,2.727436,22.0,11,-0.0628775
3.483821,-0.73860264,-0.4372672,46.0,4,-0.0628752
47.613018,-10.094405,7.708779,12.0,12,-0.062872894
3.9077358,-0.82918936,-0.34949452,53.0,5,-0.06287059
4.4347043,-0.9426255,-0.23760527,33.0,6,-0.06286598
39.614162,-8.427476,9.350315,12.0,14,-0.06286368
5.3963966,-1.1480238,-0.096302375,29.0,7,-0.062861376
39.12957,-8.331523,10.719768,22.0,15,-0.06285907
2.3876104,-0.5118593,-0.65429455,51.0,0,-0.06283833
6.4465213,-1.3820143,0.11508117,47.0,8,-0.06283603
2.57035,-0.55150455,-0.606918,56.0,1,-0.06283373
8.4085,-1.8056964,0.4507173,18.0,9,-0.062831424
2.8676157,-0.6163342,-0.5701373,34.0,2,-0.06282912
11.644145,-2.5047925,1.042034,19.0,10,-0.06282681
3.211587,-0.69085014,-0.5203011,32.0,3,-0.06282451
21.768005,-4.686529,2.7340171,22.0,11,-0.06282221
3.5415096,-0.76311386,-0.44482315,34.0,4,-0.062819906
47.57749,-10.260545,7.708779,12.0,12,-0.062817596
3.906765,-0.8432451,-0.34966883,38.0,5,-0.06281529
42.967773,-9.274262,8.544427,21.0,13,-0.06281299
4.4432673,-0.9598567,-0.23823328,25.0,6,-0.06281069
39.814568,-8.608214,9.4043045,8.0,14,-0.06280838
5.3063602,-1.1482451,-0.09476657,31.0,7,-0.06280608
39.115353,-8.471331,10.723908,11.0,15,-0.062803775
2.4142134,-0.52594227,-0.6620591,48.0,0,-0.06278304
6.441658,-1.4045085,0.11508117,51.0,8,-0.06278074
2.5607934,-0.5588114,-0.60511833,44.0,1,-0.06277843
8.525075,-1.8618845,0.45731166,23.0,9,-0.062776126
2.86172,-0.6250024,-0.5693741,25.0,2,-0.062773824
11.659133,-2.5484977,1.0441258,15.0,10,-0.06277152
3.191788,-0.6982569,-0.51748526,39.0,3,-0.06276921
21.970636,-4.810462,2.7615597,32.0,11,-0.06276691
3.509738,-0.7690976,-0.44116706,46.0,4,-0.06276461
3.9039474,-0.85619587,-0.34966883,41.0,5,-0.062759995
4.5783925,-1.0057871,-0.245665,27.0,6,-0.06275539
40.06025,-8.8078165,9.46954,4.0,14,-0.06275309
5.3687205,-1.181372,-0.09595333,31.0,7,-0.06275078
39.76096,-8.756566,10.909224,24.0,15,-0.06274848
2.4085908,-0.53353065,-0.66102386,49.0,0,-0.06272774
6.415241,-1.4222246,0.11469722,49.0,8,-0.06272544
2.5569248,-0.56732476,-0.60466844,47.0,1,-0.06272314
8.460031,-1.8786421,0.45417148,55.0,9,-0.06272083
2.8825197,-0.640095,-0.5739535,43.0,2,-0.062718526
11.584039,-2.5744839,1.0381992,16.0,10,-0.06271622
3.1546228,-0.701674,-0.51185364,41.0,3,-0.06271392
22.03703,-4.905672,2.7720401,32.0,11,-0.06271161
3.5147824,-0.783071,-0.44214204,50.0,4,-0.06270931
55.760517,-12.433301,9.048484,17.0,12,-0.06270701
3.8795443,-0.8650483,-0.3477514,36.0,5,-0.062704705
40.0163,-8.930037,7.9697104,17.0,13,-0.062702395
4.4988337,-1.004784,-0.2415828,27.0,6,-0.06270009
39.8619,-8.91019,9.429948,17.0,14,-0.06269779
5.37237,-1.2018515,-0.09609295,30.0,7,-0.06269549
2.4123676,-0.54320806,-0.6625768,45.0,0,-0.06267244
6.433646,-1.4498848,0.115116075,60.0,8,-0.06267014
2.5530279,-0.5758179,-0.60421854,48.0,1,-0.06266784
8.5414295,-1.9264607,0.4588817,31.0,9,-0.06266554
2.9013336,-0.65490806,-0.5781513,47.0,2,-0.06266323
11.70519,-2.6443193,1.049878,16.0,10,-0.062660925
3.1136196,-0.70396894,-0.5055962,49.0,3,-0.06265862
22.058496,-4.9913282,2.776915,45.0,11,-0.06265632
3.492805,-0.7903411,-0.43970463,48.0,4,-0.06265401
41.70495,-9.444518,6.7726746,17.0,12,-0.06265171
3.9173062,-0.88783336,-0.35141194,43.0,5,-0.06264941
39.617275,-8.986282,7.89644,16.0,13,-0.062647104
4.4505014,-1.0103123,-0.23917533,26.0,6,-0.062644795
39.670605,-9.005659,9.391706,8.0,14,-0.06264249
5.3781047,-1.2218753,-0.09626748,32.0,7,-0.06264019
38.92809,-8.85139,10.696992,22.0,15,-0.06263789
2.4086697,-0.5507742,-0.6620591,41.0,0,-0.06261715
6.419057,-1.4689811,0.11494155,51.0,8,-0.06261484
2.5511043,-0.58428085,-0.60421854,37.0,1,-0.06261254
8.536941,-1.9552202,0.45898637,27.0,9,-0.06261024
2.8283417,-0.6482963,-0.5640314,37.0,2,-0.06260794
10.9623,-2.5147295,0.98398834,13.0,10,-0.06260563
3.1959805,-0.73373866,-0.5193625,46.0,3,-0.062603325
22.097927,-5.07734,2.7839837,31.0,11,-0.06260102
3.507577,-0.80591995,-0.4418983,45.0,4,-0.06259872
41.63682,-9.574353,6.76673,26.0,12,-0.06259641
3.8890991,-0.8950099,-0.3491459,37.0,5,-0.06259411
39.31176,-9.054156,7.8414865,16.0,13,-0.062591806
4.3634386,-1.005775,-0.23467445,27.0,6,-0.062589504
39.845608,-9.184434,9.440296,13.0,14,-0.0625872
5.368178,-1.2383546,-0.09616276,30.0,7,-0.06258489
2.38613,-0.553953,-0.6563651,50.0,0,-0.062561855
6.41415,-1.4902594,0.11494155,47.0,8,-0.06255955
2.5624394,-0.59582686,-0.6073678,43.0,1,-0.06255724
8.475595,-1.9723327,0.45605558,30.0,9,-0.06255494
2.9045749,-0.6759157,-0.57967776,34.0,2,-0.06255264
12.13176,-2.825381,1.0897954,22.0,10,-0.062550336
3.212768,-0.74881685,-0.52249116,43.0,3,-0.06254803
22.222094,-5.1835103,2.8017764,26.0,11,-0.062545724
3.510542,-0.8195126,-0.4426295,46.0,4,-0.06254342
62.264305,-14.546646,10.127256,29.0,12,-0.06254112
3.8820713,-0.90767276,-0.3487973,35.0,5,-0.06253882
39.526215,-9.241682,7.8903337,16.0,13,-0.06253651
4.5564976,-1.0662001,-0.24524632,30.0,6,-0.062534206
39.91007,-9.346125,9.463241,21.0,14,-0.0625319
5.3209896,-1.2470471,-0.09539485,31.0,7,-0.0625296
40.066902,-9.397606,11.027245,12.0,15,-0.06252729
2.3953648,-0.56535745,-0.659471,50.0,0,-0.06250656
6.4342093,-1.5186114,0.115395315,49.0,8,-0.062504254
2.5622406,-0.60521585,-0.60781777,41.0,1,-0.06250195
8.519196,-2.0138524,0.45877704,27.0,9,-0.062499646
2.938378,-0.6951447,-0.5869285,38.0,2,-0.062497344
11.923566,-2.8230064,1.0720155,16.0,10,-0.062495038
3.1715586,-0.7514783,-0.5162338,39.0,3,-0.062492736
22.205795,-5.2615056,2.80202,23.0,11,-0.06249043
3.5115228,-0.8326777,-0.44311696,55.0,4,-0.062488127
3.8110325,-0.9051049,-0.34269637,28.0,5,-0.06248352
39.373657,-9.358344,7.8666735,16.0,13,-0.062481213
4.5195274,-1.0750363,-0.2434669,23.0,6,-0.06247891
38.630028,-9.195847,9.167655,8.0,14,-0.062476605
5.330222,-1.268855,-0.09563919,30.0,7,-0.062474303
40.00378,-9.530244,11.018962,12.0,15,-0.062471997
2.3952556,-0.57416576,-0.6599886,49.0,0,-0.062451262
6.442212,-1.5454491,0.11563965,47.0,8,-0.06244896
2.5334764,-0.6082339,-0.6015191,41.0,1,-0.062446654
8.503988,-2.0431967,0.45835835,28.0,9,-0.06244435
2.9072995,-0.69851756,-0.58120424,37.0,2,-0.062442046
11.588194,-2.7863574,1.0427313,16.0,10,-0.062439743
3.1420283,-0.7560745,-0.51185364,39.0,3,-0.062437437
22.167063,-5.338211,2.799583,26.0,11,-0.062435135
3.5065174,-0.8450774,-0.4428732,47.0,4,-0.06243283
3.8774135,-0.9358963,-0.34897158,30.0,5,-0.06242822
39.37892,-9.504941,7.874306,16.0,13,-0.06242592
4.49245,-1.0851783,-0.24221084,30.0,6,-0.062423613
38.679142,-9.350324,9.187,28.0,14,-0.06242131
5.3508024,-1.2944952,-0.09609295,34.0,7,-0.062419005
39.91601,-9.664074,11.004469,12.0,15,-0.062416703
2.4006429,-0.5847697,-0.6620591,49.0,0,-0.062395968
6.4503784,-1.57124,0.11588398,49.0,8,-0.06239366
2.5313377,-0.6170736,-0.6015191,39.0,1,-0.06239136
8.5705385,-2.0908568,0.46233588,40.0,9,-0.062389053
2.8646681,-0.69939023,-0.5731903,29.0,2,-0.06238675
11.711451,-2.861441,1.0547588,13.0,10,-0.062384445
3.1814508,-0.77790755,-0.5187368,45.0,3,-0.062382143
22.179146,-5.4230995,2.8034828,31.0,11,-0.062379837
3.4919772,-0.85448134,-0.4414108,49.0,4,-0.062377535
40.689545,-9.964194,6.635012,8.0,12,-0.06237523
3.8567069,-0.9451571,-0.34740278,29.0,5,-0.062372927
4.5582714,-1.1187754,-0.24597903,39.0,6,-0.06236832
38.26044,-9.397665,9.095671,32.0,14,-0.062366012
5.3598456,-1.3165042,-0.09633729,30.0,7,-0.06236371
40.5649,-9.971202,11.192889,12.0,15,-0.062361404
2.4025447,-0.5932349,-0.6630944,44.0,0,-0.062332153
6.4567804,-1.5955,0.11609341,49.0,8,-0.06232985
2.587922,-0.6399666,-0.61546606,47.0,1,-0.062327545
8.557741,-2.1178267,0.46202186,45.0,9,-0.062325243
2.868174,-0.7098013,-0.5743351,41.0,2,-0.062322937
11.731413,-2.905404,1.0573735,16.0,10,-0.062320635
3.1828258,-0.78884894,-0.5193625,43.0,3,-0.06231833
22.276644,-5.5252914,2.818107,23.0,11,-0.062316027
3.4968307,-0.8679693,-0.44238573,49.0,4,-0.06231372
3.8266478,-0.9505442,-0.34496242,28.0,5,-0.062309112
4.488836,-1.1166964,-0.24242018,27.0,6,-0.062304504
38.56355,-9.600676,9.174854,33.0,14,-0.062302202
5.270073,-1.3129998,-0.09480147,34.0,7,-0.062299896
39.72934,-9.905637,10.97134,12.0,15,-0.062297594
2.4117029,-0.6044356,-0.6662002,44.0,0,-0.06227686
6.4317756,-1.6131638,0.11574436,38.0,8,-0.062274553
2.6007934,-0.65279156,-0.6190653,47.0,1,-0.06227225
8.552234,-2.1481726,0.46212655,40.0,9,-0.062269945
2.9189937,-0.73320055,-0.5850204,36.0,2,-0.062267642
11.765641,-2.9575078,1.0613827,8.0,10,-0.062265337
3.1685588,-0.7970629,-0.51748526,45.0,3,-0.062263034
22.193693,-5.587026,2.8100636,21.0,11,-0.06226073
3.5207288,-0.8869594,-0.4457981,47.0,4,-0.062258426
67.67065,-17.060486,11.053348,42.0,12,-0.06225612
3.9546783,-0.9970162,-0.3568156,38.0,5,-0.062253818
39.183777,-9.885919,7.8552256,16.0,13,-0.062251512
4.515894,-1.1401813,-0.24409491,31.0,6,-0.06224921
38.951126,-9.841684,9.275182,16.0,14,-0.062246904
5.339128,-1.3500156,-0.09612786,35.0,7,-0.0622446
39.49975,-9.994972,10.917505,12.0,15,-0.062242296
2.4020896,-0.6109457,-0.66412973,47.0,0,-0.06222156
6.4706774,-1.6469496,0.116547175,45.0,8,-0.06221926
2.607941,-0.6642711,-0.6213148,50.0,1,-0.062216952
8.556294,-2.1809719,0.46275455,33.0,9,-0.06221465
2.9373431,-0.74871933,-0.5892182,39.0,2,-0.062212344
11.66837,-2.976399,1.0535386,11.0,10,-0.062210042
3.1619294,-0.8071412,-0.51685953,46.0,3,-0.062207736
22.289457,-5.693942,2.824688,26.0,11,-0.062205434
3.5176113,-0.8992437,-0.4457981,52.0,4,-0.062203128
3.9029183,-0.9984693,-0.35245782,31.0,5,-0.06219852
39.624508,-10.144363,7.9506297,17.0,13,-0.062196217
4.4596477,-1.1425542,-0.24126878,40.0,6,-0.06219391
38.574863,-9.889991,9.193749,33.0,14,-0.06219161
5.3556895,-1.3741109,-0.09651181,27.0,7,-0.062189307
39.52075,-10.147203,10.933034,12.0,15,-0.062187
2.3924599,-0.6173959,-0.6620591,47.0,0,-0.062166266
6.513293,-1.6820265,0.11741979,45.0,8,-0.06216396
2.6112669,-0.6748333,-0.6226645,53.0,1,-0.062161658
8.434545,-2.1813216,0.4565789,33.0,9,-0.062159352
2.8434772,-0.73537326,-0.57090056,28.0,2,-0.06215705
11.584615,-2.998142,1.0469148,8.0,10,-0.062154744
3.1476188,-0.8152019,-0.5149823,45.0,3,-0.06215244
22.296349,-5.7786846,2.8281002,28.0,11,-0.062150136
3.5240588,-0.91400886,-0.4470168,56.0,4,-0.062147833
39.584633,-10.274144,6.4773264,7.0,12,-0.06214553
3.9264076,-1.0190945,-0.35489815,30.0,5,-0.062143225
4.4614315,-1.1596217,-0.2415828,30.0,6,-0.062138617
38.756996,-10.080996,9.245488,28.0,14,-0.062136315
5.325702,-1.3862488,-0.09605805,32.0,7,-0.06213401
39.230843,-10.218869,10.862636,23.0,15,-0.062131707
2.395897,-0.6272111,-0.66361207,45.0,0,-0.062110968
6.505448,-1.7042452,0.11738489,42.0,8,-0.062108666
2.5843897,-0.67751986,-0.6168158,44.0,1,-0.06210636
8.459722,-2.2193663,0.45835835,27.0,9,-0.062104058
2.7991152,-0.7343342,-0.56250495,27.0,2,-0.06210175
11.666578,-3.0628462,1.0552818,5.0,10,-0.06209945
3.1715016,-0.8332112,-0.5193625,41.0,3,-0.062097147
22.444988,-5.900895,2.8495493,27.0,11,-0.06209484
3.526606,-0.9278197,-0.447748,50.0,4,-0.06209254
51.136288,-13.463061,8.37519,14.0,12,-0.062090233
3.8977792,-1.0261996,-0.3526321,37.0,5,-0.06208793
39.23378,-10.336715,7.8865175,16.0,13,-0.062085625
4.577095,-1.2067571,-0.24807246,39.0,6,-0.062083323
38.909996,-10.265936,9.290479,38.0,14,-0.062081017
5.332432,-1.4078935,-0.09626748,32.0,7,-0.062078714
39.564747,-10.453456,10.965128,12.0,15,-0.06207641
2.4123645,-0.64052814,-0.66878843,46.0,0,-0.062055673
6.505257,-1.7284839,0.1174896,52.0,8,-0.062053367
2.6027253,-0.6920453,-0.6217647,53.0,1,-0.062051065
8.484735,-2.2576134,0.46013778,32.0,9,-0.062048763
2.8306851,-0.7531871,-0.5693741,25.0,2,-0.062046457
11.663517,-3.1056018,1.0559789,11.0,10,-0.062044155
3.1571212,-0.84122515,-0.51748526,45.0,3,-0.06204185
22.472204,-5.9919925,2.8556428,24.0,11,-0.062039547
3.492658,-0.9319358,-0.4438482,36.0,4,-0.06203724
41.847965,-11.173997,6.860278,9.0,12,-0.06203494
3.8922484,-1.0392852,-0.35245782,31.0,5,-0.062032633
4.5226884,-1.2093129,-0.24535099,34.0,6,-0.062028024
43.305363,-11.587437,10.349548,5.0,14,-0.062025722
5.34487,-1.4311538,-0.09658162,29.0,7,-0.062023416
2.4045177,-0.64743817,-0.6672355,43.0,0,-0.06200038
6.5300775,-1.759505,0.11804808,57.0,8,-0.061998073
2.611583,-0.70417017,-0.6244641,53.0,1,-0.06199577
8.590572,-2.3179145,0.46631342,28.0,9,-0.061993465
2.8166661,-0.75999486,-0.5670844,31.0,2,-0.061991163
11.587206,-3.1286373,1.0500524,11.0,10,-0.061988857
