x,y,z,intensity,ring,time
5.112192,1.9603405,-0.09556938,27.0,7,-0.07723977
36.999813,14.180681,10.617275,22.0,15,-0.077237464
2.1802764,0.83213127,-0.62530684,37.0,0,-0.07721673
6.2179456,2.3719177,0.11616322,54.0,8,-0.07721443
2.4308825,0.9268051,-0.6006193,37.0,1,-0.07721212
7.8287983,2.9848297,0.43909872,35.0,9,-0.077209815
2.7225008,1.0374457,-0.56632113,30.0,2,-0.07720751
11.108206,4.2307115,1.0399423,22.0,10,-0.07720521
2.8910596,1.1005203,-0.4899528,39.0,3,-0.0772029
18.599842,7.07657,2.4434805,16.0,11,-0.0772006
3.315723,1.2608508,-0.43556106,38.0,4,-0.0771983
44.49241,16.91887,7.5392036,11.0,12,-0.077195995
3.730414,1.4177958,-0.3491459,37.0,5,-0.07719369
36.77208,13.968417,7.6460986,14.0,13,-0.07719138
4.0929303,1.5539427,-0.22944085,23.0,6,-0.07718908
37.13183,14.090223,9.169005,16.0,14,-0.07718678
5.1264834,1.9453202,-0.095708996,24.0,7,-0.077184476
37.12856,14.081593,10.640051,11.0,15,-0.07718217
2.2012405,0.8313405,-0.6304832,46.0,0,-0.07716143
6.1172757,2.3103058,0.114138745,42.0,8,-0.07715913
2.4029484,0.90704006,-0.59297097,34.0,1,-0.07715683
7.8728056,2.9701755,0.44098282,35.0,9,-0.077154525
2.696714,1.0168524,-0.56021523,27.0,2,-0.077152215
11.078162,4.1750445,1.0357589,22.0,10,-0.07714991
2.9686317,1.1187929,-0.5024676,43.0,3,-0.07714761
18.051043,6.799328,2.368409,14.0,11,-0.07714531
3.2994506,1.2421541,-0.43287995,42.0,4,-0.077143
3.7726376,1.418793,-0.3526321,38.0,5,-0.077138394
35.99128,13.535405,7.47437,14.0,13,-0.07713609
4.1747127,1.5691717,-0.2337324,26.0,6,-0.07713378
37.233074,13.98758,9.182503,16.0,14,-0.07713148
4.9853477,1.8718836,-0.092951514,27.0,7,-0.07712918
36.942368,13.863657,10.572759,21.0,15,-0.077126876
2.1949377,0.82065403,-0.62789506,51.0,0,-0.07710614
5.9791946,2.2343411,0.11141616,45.0,8,-0.07710383
2.353158,0.8788742,-0.5799238,41.0,1,-0.07710153
7.905064,2.9524393,0.4422389,40.0,9,-0.07709923
2.7074285,1.0106511,-0.5617417,31.0,2,-0.077096924
11.032211,4.116001,1.0301808,22.0,10,-0.077094615
2.952159,1.1008323,-0.499026,34.0,3,-0.07709231
18.072805,6.735587,2.3681653,18.0,11,-0.07709001
3.3149278,1.234786,-0.43434238,40.0,4,-0.07708771
37.061367,13.805083,6.26395,7.0,12,-0.0770854
3.779189,1.4069707,-0.35280645,43.0,5,-0.077083096
35.442146,13.187869,7.350726,13.0,13,-0.07708079
4.0959253,1.5232602,-0.22902218,32.0,6,-0.07707849
36.985756,13.747543,9.109618,28.0,14,-0.07707618
5.004648,1.8602194,-0.09319585,30.0,7,-0.07707388
37.027973,13.755882,10.5841465,22.0,15,-0.07707158
2.2014122,0.81432813,-0.6289303,51.0,0,-0.07705084
5.939683,2.197158,0.11054354,45.0,8,-0.07704854
2.3414373,0.86565924,-0.5763246,50.0,1,-0.07704623
7.7860537,2.877059,0.4350165,31.0,9,-0.07704393
2.6814725,0.99031234,-0.5556358,31.0,2,-0.077041626
11.027822,4.0705643,1.0284377,22.0,10,-0.077039324
2.9428213,1.0862474,-0.49683592,39.0,3,-0.077037014
18.139744,6.6921034,2.374015,26.0,11,-0.07703471
3.2780282,1.2086803,-0.42898014,42.0,4,-0.07703241
37.161224,13.694763,6.2727103,7.0,12,-0.07703011
3.7242498,1.3717334,-0.34722847,40.0,5,-0.0770278
4.168428,1.5345112,-0.23279037,30.0,6,-0.07702319
36.780586,13.532621,9.047981,32.0,14,-0.07702089
5.033633,1.8510193,-0.09361471,28.0,7,-0.07701859
39.309708,14.44758,11.221876,13.0,15,-0.07701628
2.1968448,0.8043661,-0.6268598,51.0,0,-0.07698703
6.0092874,2.1990879,0.1116954,51.0,8,-0.076984726
2.382878,0.87153834,-0.5857725,59.0,1,-0.07698242
7.8673315,2.8759222,0.43899405,37.0,9,-0.076980114
2.7105567,0.9908506,-0.5609785,31.0,2,-0.07697781
11.116114,4.061323,1.0354102,33.0,10,-0.07697551
2.9317505,1.0705488,-0.49433297,41.0,3,-0.07697321
18.079075,6.598121,2.363047,16.0,11,-0.0769709
3.3400397,1.2183172,-0.43653604,38.0,4,-0.076968595
37.531723,13.682698,6.3271494,14.0,12,-0.07696629
3.8017812,1.3859909,-0.35402662,55.0,5,-0.07696399
35.68604,13.002773,7.382782,13.0,13,-0.07696168
4.2657166,1.5534382,-0.23791927,27.0,6,-0.07695938
36.855064,13.414157,9.05473,32.0,14,-0.07695708
4.983687,1.8129301,-0.09256756,30.0,7,-0.076954775
40.08976,14.575645,11.429967,13.0,15,-0.076952465
2.1978228,0.7960343,-0.6263421,43.0,0,-0.07693173
5.9304347,2.1467865,0.11008978,45.0,8,-0.07692943
2.3932357,0.8658678,-0.58757216,65.0,1,-0.076927125
7.8322453,2.8321404,0.4364819,31.0,9,-0.07692482
2.7047682,0.97804433,-0.55907035,37.0,2,-0.07692251
10.963459,3.962224,1.0198965,27.0,10,-0.07692021
2.9521906,1.0663488,-0.4971488,36.0,3,-0.07691791
17.553055,6.336796,2.2913876,12.0,11,-0.07691561
3.2583783,1.1756583,-0.42532405,34.0,4,-0.0769133
37.52722,13.532848,6.318389,14.0,12,-0.076910995
3.74662,1.3510842,-0.34844866,40.0,5,-0.07690869
35.723824,12.875454,7.3812556,27.0,13,-0.07690639
4.2542024,1.5324457,-0.23697723,17.0,6,-0.07690408
36.912666,13.289395,9.057429,28.0,14,-0.07690178
4.9711695,1.7887509,-0.09221852,30.0,7,-0.07689948
38.331615,13.785117,10.914917,24.0,15,-0.076897174
2.2242303,0.7968291,-0.6330714,45.0,0,-0.07687644
6.0207286,2.1557333,0.1116256,42.0,8,-0.07687413
2.420096,0.86604357,-0.59342086,43.0,1,-0.07687183
7.847725,2.806803,0.43679595,26.0,9,-0.076869525
2.6769066,0.95689064,-0.55258286,33.0,2,-0.07686722
10.964088,3.9192376,1.0186763,22.0,10,-0.07686491
2.907529,1.038757,-0.4890142,38.0,3,-0.07686261
17.952705,6.410332,2.340623,16.0,11,-0.07686031
3.284897,1.1722844,-0.4282489,30.0,4,-0.07685801
37.38632,13.334736,6.2867894,21.0,12,-0.0768557
3.7703147,1.3440304,-0.35019177,42.0,5,-0.076853395
35.824406,12.763549,7.392322,27.0,13,-0.07685109
4.3143544,1.5362734,-0.24001274,30.0,6,-0.07684879
37.256233,13.2663555,9.130313,28.0,14,-0.07684649
5.015063,1.7847958,-0.092916615,28.0,7,-0.07684418
38.370396,13.648002,10.912329,24.0,15,-0.076841876
2.2180312,0.7854456,-0.6304832,42.0,0,-0.07682114
6.049325,2.1409922,0.11200955,49.0,8,-0.07681884
2.4103935,0.8526192,-0.59027153,44.0,1,-0.07681653
7.8071184,2.7600448,0.43396983,27.0,9,-0.07681423
2.722971,0.9621167,-0.5613601,37.0,2,-0.076811925
11.092972,3.919518,1.0293093,27.0,10,-0.07680962
2.9224927,1.0320408,-0.49089143,38.0,3,-0.07680731
17.047606,6.016788,2.2197285,2.0,11,-0.07680501
3.341589,1.1787257,-0.43507358,30.0,4,-0.07680271
37.522495,13.228497,6.3014936,7.0,12,-0.076800406
3.733874,1.3156368,-0.34635693,28.0,5,-0.076798104
35.85984,12.62824,7.3900332,27.0,13,-0.076795794
4.3915467,1.5456483,-0.24399024,26.0,6,-0.07679349
37.31931,13.1349,9.133912,16.0,14,-0.07679119
5.034775,1.7710485,-0.09316095,28.0,7,-0.07678889
36.860104,12.9588,10.469231,10.0,15,-0.07678658
2.1862504,0.7651857,-0.6206481,46.0,0,-0.07676584
6.032594,2.110221,0.11155578,42.0,8,-0.07676354
2.4098232,0.8424932,-0.58937174,44.0,1,-0.07676124
7.848754,2.7439864,0.4357492,31.0,9,-0.07675893
2.711486,0.9474245,-0.5583072,35.0,2,-0.07675663
10.913522,3.811173,1.0113552,19.0,10,-0.076754324
2.915065,1.0174173,-0.4890142,38.0,3,-0.07675202
17.13702,5.9778066,2.228503,2.0,11,-0.07674972
3.2971509,1.1494805,-0.4287364,33.0,4,-0.07674741
37.63187,13.119538,6.3121314,21.0,12,-0.07674511
3.7083397,1.2921088,-0.34356794,31.0,5,-0.076742806
36.126186,12.580473,7.435827,28.0,13,-0.0767405
4.323351,1.5047047,-0.23990804,21.0,6,-0.07673819
36.74878,12.782884,8.982746,15.0,14,-0.07673589
5.03526,1.7514907,-0.09305623,30.0,7,-0.07673359
36.30113,12.620088,10.297893,20.0,15,-0.07673129
2.2035131,0.7626036,-0.6247892,52.0,0,-0.076710545
6.1434937,2.126173,0.113475546,49.0,8,-0.07670824
2.399712,0.83003753,-0.58622247,50.0,1,-0.07670594
7.6015654,2.6278238,0.42151386,21.0,9,-0.07670364
2.7110658,0.93667096,-0.55754393,37.0,2,-0.076701336
11.141451,3.8471918,1.0312268,24.0,10,-0.076699026
2.9090874,1.0045205,-0.48744985,45.0,3,-0.07669672
16.477457,5.686519,2.1402695,2.0,11,-0.07669442
3.3272176,1.1476012,-0.43214872,34.0,4,-0.07669212
36.463535,12.5696535,6.1087666,13.0,12,-0.07668981
3.780642,1.302519,-0.34984317,47.0,5,-0.07668751
36.501816,12.575723,7.504518,14.0,13,-0.076685205
4.366086,1.5033634,-0.24200147,22.0,6,-0.0766829
36.333977,12.503712,8.871169,27.0,14,-0.07668059
5.0451245,1.735208,-0.09312604,30.0,7,-0.07667829
36.368713,12.501452,10.304623,20.0,15,-0.07667599
2.1950638,0.7515382,-0.6216834,51.0,0,-0.076655254
6.0695214,2.0768812,0.11197464,42.0,8,-0.07665295
2.424722,0.82922226,-0.5916213,50.0,1,-0.07665064
7.6385856,2.6122935,0.42308393,32.0,9,-0.07664834
2.7215877,0.9302159,-0.55907035,34.0,2,-0.07664604
11.097584,3.7909043,1.0259974,33.0,10,-0.076643735
2.9537039,1.0084,-0.49433297,45.0,3,-0.076641425
17.057074,5.819993,2.2129037,16.0,11,-0.07663912
3.2765212,1.117972,-0.4250803,25.0,4,-0.07663682
52.41952,17.875723,8.771907,16.0,12,-0.07663452
3.7434518,1.2758334,-0.3460083,43.0,5,-0.07663221
36.52691,12.441891,7.500702,14.0,13,-0.07662991
4.3996673,1.4977716,-0.24357156,28.0,6,-0.076627605
36.34203,12.371859,8.863071,27.0,14,-0.0766253
5.130362,1.7455192,-0.09459204,34.0,7,-0.07662299
36.062454,12.26262,10.20627,9.0,15,-0.07662069
2.1847353,0.7399175,-0.6180599,48.0,0,-0.076599956
6.0555406,2.0496883,0.11159069,33.0,8,-0.07659765
2.4071522,0.81430835,-0.5866723,47.0,1,-0.07659535
7.760721,2.6253512,0.42936423,26.0,9,-0.07659304
2.7283773,0.92244256,-0.55983365,37.0,2,-0.07659074
11.117645,3.756631,1.0266947,33.0,10,-0.07658844
2.9757466,1.0049205,-0.49746165,45.0,3,-0.076586135
16.876911,5.696104,2.1870675,12.0,11,-0.076583825
3.3215892,1.1210653,-0.43044254,34.0,4,-0.07658152
3.7419977,1.2615039,-0.34548536,36.0,5,-0.07657692
36.6089,12.334475,7.509097,28.0,13,-0.07657461
4.3270044,1.4570398,-0.23928,30.0,6,-0.07657231
36.21295,12.194052,8.821681,26.0,14,-0.076570004
5.1285415,1.7259464,-0.094452426,34.0,7,-0.0765677
36.07546,12.133718,10.198506,19.0,15,-0.0765654
2.201831,0.73757803,-0.62220097,47.0,0,-0.07654466
6.077473,2.0346763,0.111869924,42.0,8,-0.076542355
2.3802712,0.7964273,-0.5794739,43.0,1,-0.07654005
7.5842104,2.5361726,0.41910636,16.0,9,-0.07653775
2.7574875,0.9221085,-0.56517625,38.0,2,-0.07653544
11.1697235,3.7330072,1.0303552,24.0,10,-0.07653314
2.9753156,0.9937945,-0.49683592,57.0,3,-0.07653084
17.178143,5.7344027,2.223628,12.0,11,-0.076528534
3.3443124,1.1157486,-0.43287995,36.0,4,-0.076526225
36.75757,12.256122,6.136925,6.0,12,-0.07652392
3.7575011,1.2528683,-0.3465312,33.0,5,-0.07652162
36.571373,12.186947,7.493069,28.0,13,-0.07651932
4.3052826,1.4338485,-0.2378146,27.0,6,-0.076517016
36.074093,12.007248,8.77759,11.0,14,-0.076514706
5.125048,1.7048765,-0.0942779,39.0,7,-0.076512404
36.508064,12.137541,10.308763,20.0,15,-0.0765101
2.1713817,0.718957,-0.6128835,43.0,0,-0.07648937
6.105422,2.0203583,0.112253875,38.0,8,-0.07648706
2.4163399,0.7991283,-0.58757216,32.0,1,-0.076484755
7.72197,2.5523033,0.42622405,26.0,9,-0.07648245
2.7550974,0.91062826,-0.5640314,39.0,2,-0.07648015
11.229983,3.7096155,1.0347129,33.0,10,-0.07647784
2.9843938,0.9852611,-0.49777454,54.0,3,-0.07647554
17.282887,5.7023892,2.2345965,16.0,11,-0.076473236
3.3199081,1.0947422,-0.42922387,33.0,4,-0.076470934
3.7277906,1.2285203,-0.34339362,32.0,5,-0.07646632
36.341434,11.969552,7.437353,28.0,13,-0.07646402
4.4373693,1.4606503,-0.24482764,26.0,6,-0.07646172
35.486397,11.674206,8.624623,14.0,14,-0.076459415
5.1689606,1.6994691,-0.094976,37.0,7,-0.076457106
36.64931,12.0426035,10.336716,20.0,15,-0.0764548
2.1683702,0.7095701,-0.6113306,45.0,0,-0.07643407
6.125741,2.0033865,0.11249821,49.0,8,-0.076431766
2.4228191,0.79190016,-0.58847195,33.0,1,-0.07642946
7.588443,2.4788184,0.41837367,27.0,9,-0.076427154
2.7433298,0.896128,-0.5609785,39.0,2,-0.07642485
11.148162,3.6394784,1.0259974,33.0,10,-0.07642255
2.9502556,0.96258384,-0.49151716,52.0,3,-0.07642025
17.119623,5.582328,2.2109537,8.0,11,-0.07641794
3.365232,1.0966792,-0.4345861,39.0,4,-0.076415636
37.897823,12.343002,6.312757,7.0,12,-0.07641333
3.762581,1.2247149,-0.34618258,31.0,5,-0.07641103
36.375534,11.840185,7.435827,28.0,13,-0.07640872
4.33608,1.4105535,-0.23896599,26.0,6,-0.07640642
35.35273,11.493617,8.582333,39.0,14,-0.07640412
5.140629,1.6702912,-0.09434771,36.0,7,-0.076401815
36.794018,11.94802,10.365704,20.0,15,-0.076399505
2.193015,0.7087474,-0.61754227,45.0,0,-0.07637877
6.11367,1.9758403,0.112149164,49.0,8,-0.07637647
2.4700744,0.7978125,-0.59926957,33.0,1,-0.076374166
7.441192,2.4020061,0.40979058,15.0,9,-0.07637186
2.7559376,0.8890816,-0.56288654,46.0,2,-0.076369554
11.136776,3.5906434,1.0237314,33.0,10,-0.07636725
2.9612849,0.95418674,-0.49276862,51.0,3,-0.07636495
17.518778,5.6449103,2.2599452,18.0,11,-0.07636265
3.2896795,1.0593686,-0.42434907,26.0,4,-0.07636034
37.974518,12.22154,6.318389,7.0,12,-0.076358035
3.7383826,1.2024235,-0.34356794,39.0,5,-0.07635573
36.751377,11.813734,7.5037546,28.0,13,-0.07635343
4.2822733,1.3757129,-0.23572117,27.0,6,-0.07635112
35.418736,11.371719,8.5881815,36.0,14,-0.07634882
5.14262,1.6511157,-0.0942779,37.0,7,-0.07634652
36.783997,11.802976,10.35121,10.0,15,-0.076344214
2.1954756,0.7010885,-0.61754227,46.0,0,-0.07632348
5.955132,1.9005269,0.10911245,45.0,8,-0.07632117
2.510114,0.80059755,-0.60826766,33.0,1,-0.07631887
7.6074643,2.426391,0.41847834,30.0,9,-0.076316565
2.7833416,0.8872066,-0.5678476,44.0,2,-0.07631426
11.181515,3.5620303,1.0266947,33.0,10,-0.07631195
2.9871852,0.95103455,-0.49652308,63.0,3,-0.07630965
16.572721,5.273096,2.1353948,14.0,11,-0.07630735
3.3557818,1.0677402,-0.43239245,42.0,4,-0.07630505
37.4522,11.909335,6.224528,6.0,12,-0.07630274
3.7539504,1.1929864,-0.3446138,39.0,5,-0.076300435
36.567856,11.614053,7.457961,14.0,13,-0.07629813
4.416498,1.401846,-0.24283887,30.0,6,-0.07629583
35.324375,11.212352,8.556238,25.0,14,-0.07629352
5.13501,1.6289206,-0.09403357,36.0,7,-0.07629122
36.480614,11.565321,10.254411,20.0,15,-0.076288916
2.2254217,0.70252806,-0.62530684,47.0,0,-0.07626818
5.888935,1.8579041,0.10778606,31.0,8,-0.07626588
2.5201893,0.7946126,-0.61006725,34.0,1,-0.07626357
7.4592743,2.3519,0.40989524,17.0,9,-0.07626127
2.79563,0.8809239,-0.5697557,42.0,2,-0.076258965
11.100146,3.4956036,1.0181533,35.0,10,-0.07625666
3.0223548,0.9512054,-0.50184184,57.0,3,-0.07625435
17.353247,5.458151,2.2336216,24.0,11,-0.07625205
3.3611972,1.057204,-0.4326362,33.0,4,-0.07624975
37.352043,11.74123,6.201376,6.0,12,-0.076247446
3.7673895,1.1835177,-0.34548536,36.0,5,-0.07624514
36.711063,11.525665,7.4793315,28.0,13,-0.076242834
4.415406,1.3853977,-0.24252485,30.0,6,-0.07624053
35.327892,11.084639,8.54814,39.0,14,-0.07623823
5.176636,1.6232523,-0.09469675,39.0,7,-0.07623593
36.122417,11.320083,10.143119,19.0,15,-0.07623362
2.2166743,0.6916911,-0.62220097,47.0,0,-0.07621288
5.916063,1.8449153,0.10817002,33.0,8,-0.07621058
2.4390893,0.76015794,-0.5898217,36.0,1,-0.07620828
7.644781,2.3810859,0.41962975,25.0,9,-0.07620597
2.7797918,0.8658094,-0.5659395,39.0,2,-0.07620367
11.138311,3.467068,1.0205938,41.0,10,-0.076201364
3.0085166,0.93589586,-0.499026,55.0,3,-0.07619906
17.40537,5.411178,2.2380087,24.0,11,-0.07619675
3.328849,1.034273,-0.42800516,31.0,4,-0.07619445
41.033794,12.741322,6.805213,8.0,12,-0.07619215
3.8093493,1.1828334,-0.34897158,32.0,5,-0.076189846
36.70033,11.388743,7.4694095,14.0,13,-0.07618754
4.442867,1.3778481,-0.2437809,28.0,6,-0.076185234
35.33287,10.95086,8.540042,18.0,14,-0.07618293
5.1669893,1.6004405,-0.09441752,43.0,7,-0.07618063
36.373936,11.259627,10.202647,19.0,15,-0.07617833
2.200614,0.67825854,-0.6170246,43.0,0,-0.076157585
5.9396667,1.8295493,0.10848416,42.0,8,-0.07615528
2.39889,0.73845434,-0.5794739,33.0,1,-0.07615298
7.4220614,2.2833238,0.40696445,20.0,9,-0.07615068
2.749021,0.84570915,-0.55907035,39.0,2,-0.076148376
11.127493,3.4211373,1.018502,44.0,10,-0.076146066
3.0155413,0.92655104,-0.49965176,51.0,3,-0.076143764
17.464006,5.362622,2.2431273,20.0,11,-0.07614146
3.347621,1.0273049,-0.42995507,50.0,4,-0.07613916
37.07049,11.368989,6.141305,6.0,12,-0.07613685
3.7124984,1.1385702,-0.3397331,28.0,5,-0.07613455
36.293118,11.1236315,7.3785844,13.0,13,-0.076132245
4.361715,1.3360077,-0.23907068,37.0,6,-0.07612994
36.123684,11.057928,8.721803,3.0,14,-0.07612763
5.180194,1.5847331,-0.09455714,39.0,7,-0.07612533
36.052773,11.022441,10.101708,19.0,15,-0.07612303
2.2066646,0.6716974,-0.6180599,43.0,0,-0.076102294
5.961322,1.8134623,0.1087634,47.0,8,-0.07609999
2.4107757,0.7329096,-0.58172345,45.0,1,-0.07609768
7.462474,2.2672703,0.40874386,27.0,9,-0.07609538
2.7876475,0.8469511,-0.56632113,34.0,2,-0.07609308
11.099331,3.3701208,1.0148414,33.0,10,-0.076090775
2.9715006,0.9016786,-0.49183,38.0,3,-0.076088466
17.573805,5.329275,2.2548268,30.0,11,-0.07608616
3.3682845,1.0207958,-0.43214872,47.0,4,-0.07608386
37.27254,11.288753,6.1682115,6.0,12,-0.07608156
3.6460903,1.1035966,-0.33328354,28.0,5,-0.07607925
36.237774,10.96843,7.3595037,13.0,13,-0.07607695
4.3051767,1.3022705,-0.23572117,28.0,6,-0.076074645
36.14714,10.927245,8.718203,15.0,14,-0.07607234
5.201009,1.5712664,-0.094836384,39.0,7,-0.07607003
36.031845,10.878665,10.085144,19.0,15,-0.07606773
2.2405648,0.6730539,-0.6268598,40.0,0,-0.076046996
5.9273977,1.7805592,0.10803039,38.0,8,-0.07604469
2.4375827,0.7317746,-0.58757216,44.0,1,-0.07604239
7.466515,2.2400649,0.4085345,27.0,9,-0.07604008
2.7136304,0.81361157,-0.5506748,31.0,2,-0.07603778
11.165049,3.3454266,1.0197222,33.0,10,-0.07603548
2.952077,0.88398224,-0.48807558,41.0,3,-0.076033175
17.385015,5.2058415,2.2282593,20.0,11,-0.076030865
3.3547115,1.0039091,-0.42995507,46.0,4,-0.07602856
40.506355,12.113967,6.696335,8.0,12,-0.07602626
3.6880987,1.102276,-0.3367698,29.0,5,-0.07602396
36.24011,10.824308,7.351871,13.0,13,-0.07602165
4.3577666,1.300763,-0.23833798,26.0,6,-0.07601935
36.15707,10.785781,8.711005,15.0,14,-0.076017044
5.1930466,1.549104,-0.09459204,34.0,7,-0.07601474
36.171425,10.78317,10.113613,19.0,15,-0.07601243
2.2336395,0.6624837,-0.6242716,44.0,0,-0.0759917
6.0182424,1.7838279,0.10956621,36.0,8,-0.075989395
2.5000403,0.740546,-0.601969,40.0,1,-0.07598709
7.395774,2.190729,0.40424296,17.0,9,-0.07598479
2.6919808,0.79689175,-0.5457138,25.0,2,-0.07598248
10.255777,3.0340073,0.935704,33.0,10,-0.07598018
2.9399903,0.86919105,-0.48557264,28.0,3,-0.07597788
17.097477,5.0515337,2.1890175,14.0,11,-0.075975575
3.3526566,0.9899211,-0.42922387,38.0,4,-0.075973265
40.65827,12.004952,6.714481,8.0,12,-0.07597096
3.7492523,1.1063105,-0.34199914,30.0,5,-0.07596866
36.897213,10.880424,7.4774237,14.0,13,-0.07596636
4.3986797,1.2962714,-0.24032672,32.0,6,-0.07596405
37.061882,10.914942,8.919759,15.0,14,-0.07596175
5.1773224,1.5247518,-0.09420809,30.0,7,-0.075959444
36.232937,10.663923,10.120342,19.0,15,-0.07595714
2.2377925,0.65522504,-0.6247892,39.0,0,-0.07593641
6.0413966,1.7689193,0.10988036,42.0,8,-0.0759341
2.48752,0.72787255,-0.5983698,43.0,1,-0.075931795
7.4896398,2.1901267,0.40895322,27.0,9,-0.07592949
2.7173593,0.7940976,-0.55029315,26.0,2,-0.07592719
11.063819,3.2310936,1.008392,27.0,10,-0.07592488
2.9769878,0.8694038,-0.49120426,43.0,3,-0.07592258
17.064589,4.9803443,2.1826801,20.0,11,-0.07592028
3.3711662,0.9832451,-0.43117377,39.0,4,-0.075917974
40.64304,11.846361,6.705095,8.0,12,-0.075915664
3.7397003,1.0893166,-0.34077895,28.0,5,-0.07591336
4.2802243,1.2459525,-0.23362774,43.0,6,-0.07590876
37.1353,10.802857,8.928757,3.0,14,-0.075906456
5.165331,1.5016474,-0.093893945,30.0,7,-0.075904146
2.239953,0.6478,-0.6247892,39.0,0,-0.07588111
6.0705876,1.7544811,0.11029921,42.0,8,-0.07587881
2.4937894,0.7202683,-0.59926957,47.0,1,-0.0758765
7.462699,2.1539977,0.40706912,26.0,9,-0.075874195
2.7878833,0.8046813,-0.5640314,26.0,2,-0.07587189
10.934726,3.15408,0.9956672,19.0,10,-0.07586959
3.0027814,0.86557317,-0.4949587,46.0,3,-0.07586728
17.003664,4.8982134,2.1726868,40.0,11,-0.07586498
3.39747,0.9780607,-0.43409866,43.0,4,-0.075862676
37.365776,10.749765,6.1582,6.0,12,-0.07586037
3.7260602,1.0719508,-0.33921015,34.0,5,-0.07585807
4.267271,1.2260393,-0.23268569,27.0,6,-0.07585346
38.570087,11.074372,9.264384,12.0,14,-0.07585116
5.195529,1.4907762,-0.09434771,34.0,7,-0.075848855
36.280502,10.403273,10.113095,19.0,15,-0.075846545
2.225482,0.6352046,-0.6201305,41.0,0,-0.07582581
6.2132072,1.7722254,0.11277745,45.0,8,-0.07582351
2.4906666,0.7099557,-0.59791994,48.0,1,-0.075821206
7.59887,2.1645932,0.4140821,30.0,9,-0.075818904
2.7944517,0.79601985,-0.56479466,26.0,2,-0.075816594
10.673559,3.0384324,0.97091496,22.0,10,-0.07581429
3.0304842,0.8621135,-0.499026,37.0,3,-0.07581199
16.978651,4.826883,2.1673245,40.0,11,-0.07580969
3.339758,0.94883585,-0.426299,30.0,4,-0.07580738
37.342262,10.602013,6.148188,6.0,12,-0.075805075
3.7010295,1.0507762,-0.33659548,43.0,5,-0.07580277
36.01005,10.2169695,7.2759285,13.0,13,-0.07580047
4.2561526,1.2067786,-0.23184831,30.0,6,-0.07579816
37.001694,10.484389,8.878818,7.0,14,-0.07579586
5.2391825,1.4835262,-0.095045805,36.0,7,-0.07579356
36.337036,10.28236,10.11879,19.0,15,-0.075791255
2.2128093,0.6232429,-0.6159893,42.0,0,-0.07577052
6.169309,1.7364382,0.111869924,45.0,8,-0.07576821
2.4950054,0.7017855,-0.5983698,34.0,1,-0.07576591
7.5986876,2.1358948,0.41366345,28.0,9,-0.075763606
2.8331232,0.796355,-0.5720454,31.0,2,-0.0757613
10.611211,2.9806786,0.9642911,22.0,10,-0.07575899
3.0296717,0.8504613,-0.49840027,37.0,3,-0.07575669
17.180794,4.819598,2.1909673,22.0,11,-0.07575439
3.3965695,0.95217466,-0.43312368,39.0,4,-0.07575209
37.877407,10.611203,6.2301593,6.0,12,-0.07574978
3.7238603,1.0432246,-0.33833858,38.0,5,-0.075747475
36.310173,10.165316,7.3293557,13.0,13,-0.07574517
4.387284,1.2274287,-0.23875666,40.0,6,-0.07574287
35.820038,10.014617,8.586831,3.0,14,-0.07574056
5.2424026,1.464692,-0.0950109,36.0,7,-0.07573826
36.14757,10.0925865,10.056155,19.0,15,-0.07573596
2.224278,0.61810166,-0.61857754,43.0,0,-0.07571522
6.1772585,1.7154291,0.11190483,47.0,8,-0.07571292
2.4880512,0.6904658,-0.5961203,39.0,1,-0.07571061
7.66576,2.125905,0.41690826,34.0,9,-0.07570831
2.7942648,0.77491885,-0.56364983,30.0,2,-0.075706005
10.706032,2.9670355,0.97196084,22.0,10,-0.0757037
3.063081,0.84831697,-0.50340617,31.0,3,-0.07570139
17.465355,4.8337293,2.2250907,28.0,11,-0.07569909
3.3596938,0.929201,-0.42800516,31.0,4,-0.07569679
40.846363,11.289332,6.711978,8.0,12,-0.07569449
3.771648,1.0424279,-0.34234774,37.0,5,-0.07569218
4.312606,1.1903183,-0.23446509,25.0,6,-0.07568757
36.0464,9.942382,8.632722,18.0,14,-0.07568527
5.2050714,1.4346946,-0.09424299,33.0,7,-0.07568297
36.132298,9.952486,10.04218,19.0,15,-0.07568066
2.2336607,0.6131557,-0.6206481,47.0,0,-0.07544255
6.1382637,1.6838452,0.111102015,54.0,8,-0.07544025
2.4281876,0.6656447,-0.5812735,47.0,1,-0.07543795
7.443173,2.039014,0.4044523,26.0,9,-0.07543564
2.825088,0.7739165,-0.5693741,26.0,2,-0.075433336
10.121501,2.770827,0.91809857,11.0,10,-0.075431034
3.035245,0.83035046,-0.49840027,32.0,3,-0.07542873
17.214296,4.7060685,2.191211,26.0,11,-0.07542642
3.3262134,0.908701,-0.42337415,39.0,4,-0.07542412
40.908306,11.168246,6.716358,8.0,12,-0.07542182
3.796228,1.0356822,-0.3442652,45.0,5,-0.075419515
36.10027,9.848831,7.2736397,13.0,13,-0.075417206
4.437721,1.2098615,-0.24105945,33.0,6,-0.0754149
35.545353,9.684129,8.5054,31.0,14,-0.0754126
5.180612,1.4104543,-0.09371942,30.0,7,-0.0754103
36.01985,9.79988,10.002322,9.0,15,-0.07540799
2.2265687,0.60244256,-0.6180599,46.0,0,-0.075387254
6.1518245,1.6644987,0.11124164,56.0,8,-0.07538495
2.4098034,0.651569,-0.5763246,36.0,1,-0.07538265
7.652697,2.0677233,0.41544285,33.0,9,-0.07538035
2.7975793,0.75536907,-0.5632682,27.0,2,-0.07537804
10.922187,2.9470336,0.9897406,19.0,10,-0.075375736
3.0344536,0.8181908,-0.49777454,34.0,3,-0.07537343
17.232533,4.6464705,2.1914546,22.0,11,-0.07537113
3.298697,0.8888221,-0.4194743,34.0,4,-0.07536882
38.669556,10.412137,6.3427925,7.0,12,-0.07536652
3.776732,1.0162132,-0.34217343,40.0,5,-0.07536422
38.31642,10.302709,7.7125,15.0,13,-0.075361915
4.4691286,1.200845,-0.24252485,35.0,6,-0.075359605
37.95391,10.191011,9.072725,4.0,14,-0.0753573
5.189367,1.3933978,-0.09378923,33.0,7,-0.075355
36.15459,9.70113,10.030273,19.0,15,-0.0753527
2.2193255,0.59217584,-0.6154717,44.0,0,-0.07533196
6.063208,1.6166939,0.109531306,45.0,8,-0.075329654
2.4611342,0.6557781,-0.58802205,36.0,1,-0.07532735
7.708475,2.0525062,0.41805965,35.0,9,-0.07532505
2.792611,0.7435779,-0.5617417,29.0,2,-0.07532275
10.562731,2.810524,0.9562728,16.0,10,-0.07532044
3.0162916,0.80201066,-0.49433297,41.0,3,-0.075318135
17.322353,4.6026454,2.2007167,20.0,11,-0.07531583
3.3825145,0.89812094,-0.42971134,49.0,4,-0.07531353
38.692184,10.266293,6.3402896,21.0,12,-0.07531122
3.7552214,0.996382,-0.33990738,37.0,5,-0.07530892
36.154636,9.5862255,7.270586,13.0,13,-0.07530662
4.5022526,1.1929095,-0.24409491,33.0,6,-0.075304314
36.61405,9.694378,8.744297,3.0,14,-0.07530201
5.178973,1.3702778,-0.093509994,31.0,7,-0.0752997
2.24193,0.58983374,-0.62116575,52.0,0,-0.075276665
6.0456057,1.5894191,0.10911245,47.0,8,-0.07527436
2.470948,0.6491632,-0.5898217,39.0,1,-0.07527205
7.6325245,2.0037837,0.41355878,28.0,9,-0.07526975
2.81038,0.7378153,-0.56479466,33.0,2,-0.07526745
10.830719,2.841387,0.97963053,19.0,10,-0.07526515
2.9999647,0.7864667,-0.49120426,47.0,3,-0.07526284
17.434326,4.567308,2.2129037,26.0,11,-0.075260535
3.3798676,0.88480085,-0.42898014,42.0,4,-0.07525823
38.830986,10.158154,6.3571844,14.0,12,-0.07525593
3.7702422,0.98629224,-0.34095326,37.0,5,-0.07525363
35.94855,9.39739,7.222502,27.0,13,-0.07525132
4.4580793,1.1645675,-0.24147813,35.0,6,-0.07524902
36.602417,9.55469,8.7335,18.0,14,-0.075246714
5.195335,1.3552184,-0.09371942,31.0,7,-0.07524441
36.813812,9.596148,10.193848,19.0,15,-0.0752421
2.2364953,0.5800637,-0.6190952,46.0,0,-0.07522137
6.0375676,1.5647929,0.108868115,49.0,8,-0.075219065
2.4166036,0.62587696,-0.5763246,41.0,1,-0.07521676
7.562131,1.9571105,0.40937188,33.0,9,-0.07521445
2.7122047,0.70192975,-0.5445689,26.0,2,-0.07521215
10.659253,2.756668,0.9632453,19.0,10,-0.07520985
3.048593,0.7878531,-0.49871314,43.0,3,-0.07520755
17.400188,4.493521,2.2065666,22.0,11,-0.075205244
3.373325,0.87051654,-0.42776144,34.0,4,-0.075202934
38.72466,9.986053,6.334032,7.0,12,-0.07520063
3.8006716,0.9800916,-0.34339362,37.0,5,-0.07519833
36.04577,9.288531,7.2354774,13.0,13,-0.07519603
4.415697,1.1370443,-0.23896599,28.0,6,-0.07519372
36.68084,9.438511,8.744297,26.0,14,-0.075191416
5.203906,1.3380746,-0.09378923,31.0,7,-0.07518911
36.80405,9.456518,10.181941,19.0,15,-0.07518681
2.2628384,0.5784729,-0.6258245,48.0,0,-0.07516607
6.1069283,1.5600455,0.110019974,47.0,8,-0.07516377
2.4414322,0.6232209,-0.58172345,37.0,1,-0.075161465
7.5398874,1.9232949,0.4078018,33.0,9,-0.07515916
2.8401933,0.72448415,-0.5697557,37.0,2,-0.07515686
10.722867,2.7332304,0.968126,19.0,10,-0.07515455
3.039839,0.77428037,-0.49683592,43.0,3,-0.07515225
17.373447,4.421979,2.2012043,20.0,11,-0.075149946
3.3340182,0.84797364,-0.42239916,24.0,4,-0.07514764
43.34645,11.016653,7.0836663,9.0,12,-0.075145334
3.7731736,0.9589654,-0.34060463,30.0,5,-0.07514303
36.78583,9.342415,7.3774395,13.0,13,-0.07514073
4.419638,1.1216269,-0.23896599,30.0,6,-0.07513843
35.474415,8.996177,8.449162,10.0,14,-0.07513612
5.2240534,1.3238298,-0.094068475,31.0,7,-0.075133815
36.799374,9.318531,10.171589,19.0,15,-0.07513151
2.2573504,0.5686834,-0.6237539,54.0,0,-0.07511078
6.071614,1.5284655,0.109286964,49.0,8,-0.075108476
2.3623285,0.594252,-0.56237763,26.0,1,-0.07510617
7.65309,1.9237452,0.41355878,30.0,9,-0.075103864
2.7475035,0.6906357,-0.5506748,27.0,2,-0.07510156
10.751666,2.7006347,0.9698691,22.0,10,-0.07509926
3.0540192,0.7665492,-0.49871314,41.0,3,-0.07509695
17.063374,4.2796965,2.1600125,18.0,11,-0.07509465
3.2753408,0.8208868,-0.41459954,24.0,4,-0.075092345
37.36012,9.3564825,6.1000066,13.0,12,-0.07509004
3.7610366,0.9419155,-0.33921015,30.0,5,-0.07508773
37.088665,9.28164,7.431629,14.0,13,-0.07508543
4.392526,1.098439,-0.23729126,33.0,6,-0.07508313
35.4262,8.852443,8.430265,31.0,14,-0.07508083
5.1937194,1.2968674,-0.09344018,31.0,7,-0.07507852
36.676105,9.151193,10.128625,19.0,15,-0.075076215
2.251822,0.5589381,-0.6216834,48.0,0,-0.07505548
6.063327,1.5038909,0.10904264,45.0,8,-0.07505318
2.4211335,0.6000681,-0.5758747,56.0,1,-0.075050876
7.619046,1.8869343,0.41136068,26.0,9,-0.075048566
2.8356535,0.70227844,-0.5678476,44.0,2,-0.07504626
10.9544325,2.7109478,0.9873002,19.0,10,-0.07504396
3.0528405,0.7549377,-0.4980874,45.0,3,-0.07504166
17.409678,4.3020105,2.2019355,24.0,11,-0.07503935
3.245424,0.8013581,-0.410456,28.0,4,-0.07503705
37.30816,9.205219,6.0862403,6.0,12,-0.075034745
3.7507606,0.925443,-0.33798996,31.0,5,-0.07503244
37.296204,9.195345,7.4667377,14.0,13,-0.07503013
4.2140417,1.0381881,-0.22745208,33.0,6,-0.07502783
35.50797,8.74133,8.442413,35.0,14,-0.07502553
5.2079244,1.2811171,-0.09361471,30.0,7,-0.07502323
36.760357,9.036015,10.143119,9.0,15,-0.075020924
2.268772,0.5547456,-0.6258245,47.0,0,-0.07500018
6.0607686,1.4808196,0.10890301,47.0,8,-0.07499788
2.483794,0.60640275,-0.59027153,44.0,1,-0.07499558
7.708693,1.8820292,0.41586155,27.0,9,-0.074993275
2.8151996,0.6867928,-0.5632682,34.0,2,-0.074990965
10.727673,2.6151268,0.96603423,22.0,10,-0.07498866
3.0477803,0.74240583,-0.49683592,43.0,3,-0.07498636
17.48631,4.256232,2.209735,24.0,11,-0.07498406
3.3234267,0.80832154,-0.41996178,34.0,4,-0.07498175
42.95854,10.448347,7.0023203,9.0,12,-0.07497945
3.7713926,0.9165784,-0.33955875,37.0,5,-0.074977145
4.3011,1.0437257,-0.23195298,26.0,6,-0.07497254
35.670837,8.6494665,8.4739065,28.0,14,-0.07497023
5.217974,1.2652546,-0.09371942,34.0,7,-0.07496793
36.57608,8.862193,10.084108,19.0,15,-0.074965626
2.255669,0.5432049,-0.6216834,49.0,0,-0.07494489
6.003434,1.4457327,0.10778606,47.0,8,-0.07494258
2.499054,0.6013535,-0.59342086,48.0,1,-0.07494028
7.5695715,1.8200911,0.40801117,28.0,9,-0.07493798
2.811853,0.6755864,-0.5621233,26.0,2,-0.074935675
10.597248,2.5441732,0.9534838,19.0,10,-0.074933365
3.0579088,0.7341387,-0.4980874,39.0,3,-0.07493106
17.282198,4.145906,2.1821926,20.0,11,-0.07492876
3.3048544,0.7922068,-0.41728067,24.0,4,-0.07492646
3.768756,0.9020177,-0.33903584,31.0,5,-0.07492185
37.77798,9.041819,7.550694,14.0,13,-0.074919544
4.288997,1.0257415,-0.23111561,27.0,6,-0.07491724
35.72397,8.537009,8.479755,38.0,14,-0.07491494
5.2126336,1.2447091,-0.0935449,34.0,7,-0.07491263
36.704506,8.757788,10.111025,9.0,15,-0.07491033
2.2518194,0.53438306,-0.6201305,51.0,0,-0.07488959
6.1057315,1.4478359,0.109531306,36.0,8,-0.07488729
2.5219963,0.5975694,-0.5983698,44.0,1,-0.07488498
7.414566,1.7554631,0.3993234,26.0,9,-0.07488268
2.844645,0.6734945,-0.5682292,35.0,2,-0.07488038
10.640526,2.517276,0.9566214,22.0,10,-0.074878074
3.0700648,0.725733,-0.49965176,52.0,3,-0.07487577
17.167128,4.054976,2.1658623,18.0,11,-0.07487346
3.373288,0.7961688,-0.42556778,25.0,4,-0.07487116
37.527866,8.850472,6.1068892,6.0,12,-0.07486886
3.794997,0.89500207,-0.34112757,37.0,5,-0.074866556
37.851353,8.91979,7.5590897,14.0,13,-0.074864246
4.298384,1.012136,-0.23142964,25.0,6,-0.07486194
35.85598,8.436365,8.504049,14.0,14,-0.07485964
5.2441998,1.2329143,-0.09403357,34.0,7,-0.07485734
37.351704,8.774528,10.28081,10.0,15,-0.07485503
2.253671,0.5265188,-0.6201305,51.0,0,-0.074834295
6.1477466,1.4351525,0.11019449,38.0,8,-0.07483199
2.4974978,0.5825654,-0.5920712,43.0,1,-0.07482969
7.517905,1.7522367,0.404557,31.0,9,-0.07482739
2.7877064,0.649745,-0.55639905,35.0,2,-0.07482508
10.606557,2.4701784,0.9527865,16.0,10,-0.074822776
3.084123,0.717699,-0.5015289,49.0,3,-0.074820474
17.405466,4.0471745,2.194136,24.0,11,-0.07481817
3.2194257,0.74800056,-0.40582496,24.0,4,-0.07481586
37.42384,8.688143,6.0849886,6.0,12,-0.07481356
3.730171,0.8659789,-0.33502665,28.0,5,-0.07481126
36.214584,8.400747,7.226319,13.0,13,-0.074808955
4.2551947,0.9863029,-0.2289175,33.0,6,-0.074806646
36.9104,8.54858,8.746997,15.0,14,-0.07480434
5.2484717,1.2145997,-0.09403357,33.0,7,-0.07480204
37.069664,8.571854,10.194883,19.0,15,-0.07479974
2.2517295,0.51778346,-0.6190952,50.0,0,-0.074779004
6.2033916,1.4253253,0.111102015,42.0,8,-0.074776694
2.48812,0.57122695,-0.58937174,53.0,1,-0.07477439
7.4305344,1.70455,0.39953274,28.0,9,-0.07477209
2.830142,0.64922905,-0.5644131,32.0,2,-0.07476979
10.751058,2.4642966,0.96498835,22.0,10,-0.07476748
3.0846841,0.70648724,-0.5012161,51.0,3,-0.074765176
17.18921,3.9336991,2.1651309,22.0,11,-0.07476287
3.2413685,0.74118215,-0.40826234,33.0,4,-0.07476057
44.918148,10.262884,7.2976685,10.0,12,-0.07475826
3.6651893,0.83742124,-0.32892576,27.0,5,-0.07475596
37.487793,8.558315,7.47437,14.0,13,-0.07475366
4.3384485,0.9896542,-0.23320904,27.0,6,-0.074751355
36.759506,8.378552,8.704256,30.0,14,-0.074749045
5.264377,1.198937,-0.09424299,33.0,7,-0.07474674
37.001408,8.420104,10.167966,19.0,15,-0.07474444
2.278018,0.51546335,-0.6258245,43.0,0,-0.074723706
6.175171,1.3961672,0.110508636,42.0,8,-0.0747214
2.497702,0.5642565,-0.5911713,53.0,1,-0.074719094
7.555282,1.7054262,0.40591773,26.0,9,-0.07471679
2.807495,0.63372564,-0.559452,37.0,2,-0.07471449
10.662415,2.4048376,0.9562728,19.0,10,-0.07471219
3.08135,0.6944132,-0.50027746,50.0,3,-0.07470988
17.187346,3.8701806,2.1631808,16.0,11,-0.074707575
3.2439363,0.7298623,-0.40826234,39.0,4,-0.07470527
37.26387,8.377288,6.0493217,6.0,12,-0.07470297
3.681697,0.827682,-0.33014596,28.0,5,-0.07470066
36.33365,8.161486,7.23853,13.0,13,-0.07469836
4.2990036,0.96488035,-0.23090626,32.0,6,-0.07469606
36.383507,8.159365,8.608427,25.0,14,-0.074693754
5.2412124,1.1744308,-0.09375433,31.0,7,-0.07469145
37.066395,8.298903,10.1778,19.0,15,-0.07468914
2.268489,0.5049903,-0.62271863,42.0,0,-0.07466841
6.131207,1.3637472,0.109636016,42.0,8,-0.074666105
2.5453124,0.56568056,-0.601969,33.0,1,-0.0746638
7.553389,1.6773162,0.405499,31.0,9,-0.07466149
2.8326888,0.6290308,-0.5640314,35.0,2,-0.07465919
10.78356,2.3926325,0.96638286,19.0,10,-0.07465689
3.0914695,0.68536234,-0.5015289,48.0,3,-0.07465459
17.272459,3.8260584,2.1721995,18.0,11,-0.07465228
3.273599,0.72454077,-0.41167468,27.0,4,-0.074649975
37.119297,8.208764,6.0211635,6.0,12,-0.07464767
3.7662702,0.8328935,-0.33746704,31.0,5,-0.07464537
4.323798,0.95460546,-0.23205765,33.0,6,-0.07464076
36.96364,8.154044,8.738899,26.0,14,-0.074638456
5.2277045,1.1522557,-0.09344018,39.0,7,-0.074636154
37.532837,8.265869,10.297893,20.0,15,-0.07463385
2.2777867,0.49872085,-0.6247892,48.0,0,-0.07461311
6.143745,1.3440448,0.10977564,42.0,8,-0.07461081
2.5453675,0.5563767,-0.6015191,41.0,1,-0.074608505
7.6489563,1.670541,0.41031393,26.0,9,-0.0746062
2.8195229,0.6157871,-0.5609785,38.0,2,-0.0746039
10.478448,2.2865841,0.9383187,13.0,10,-0.07460159
3.0668228,0.6686762,-0.4971488,38.0,3,-0.07459929
17.345839,3.7788374,2.1797554,24.0,11,-0.074596986
3.2858067,0.7152195,-0.41289338,28.0,4,-0.074594684
37.167027,8.083348,6.024292,6.0,12,-0.074592374
3.7380044,0.8129678,-0.33467805,31.0,5,-0.07459007
36.412758,7.9126506,7.24311,27.0,13,-0.07458777
4.395417,0.9543377,-0.23572117,30.0,6,-0.07458547
36.607174,7.9415183,8.648018,32.0,14,-0.07458316
5.2375574,1.1352726,-0.0935449,34.0,7,-0.074580856
37.58412,8.139702,10.304104,20.0,15,-0.07457855
2.3097312,0.4972719,-0.6330714,47.0,0,-0.07455782
6.191407,1.331847,0.11054354,54.0,8,-0.074555516
2.528242,0.5433927,-0.5970201,45.0,1,-0.07455321
7.6251645,1.6388696,0.40874386,27.0,9,-0.074550904
2.769829,0.5948111,-0.5506748,29.0,2,-0.0745486
10.396753,2.2307734,0.9303004,16.0,10,-0.0745463
3.0826585,0.6608646,-0.49933887,40.0,3,-0.07454399
17.26575,3.6983042,2.1680558,22.0,11,-0.07454169
3.3696847,0.72178257,-0.4231304,32.0,4,-0.074539386
37.22067,7.9658494,6.028672,6.0,12,-0.07453708
3.7505612,0.8019968,-0.3355496,36.0,5,-0.074534774
36.897102,7.883115,7.333935,13.0,13,-0.07453247
4.404581,0.94024295,-0.23603518,27.0,6,-0.07453017
36.465595,7.7842865,8.608427,21.0,14,-0.07452787
5.2569394,1.1212336,-0.09382414,34.0,7,-0.07452556
37.69971,8.033956,10.328433,10.0,15,-0.074523255
2.2773485,0.48240533,-0.6237539,47.0,0,-0.07450252
6.1684012,1.3055098,0.11005487,49.0,8,-0.07450022
2.5281236,0.5346032,-0.5965702,43.0,1,-0.074497916
7.7028565,1.6288649,0.41261673,31.0,9,-0.074495606
2.8082826,0.5933329,-0.5579255,35.0,2,-0.074493304
10.714053,2.2617133,0.9580159,22.0,10,-0.074491
3.0519748,0.6437088,-0.4940201,36.0,3,-0.0744887
17.165264,3.6172829,2.153919,36.0,11,-0.07448639
3.304075,0.6962768,-0.41459954,26.0,4,-0.07448409
37.52523,7.900974,6.073725,13.0,12,-0.074481785
3.7434516,0.7875051,-0.33467805,42.0,5,-0.07447948
37.034477,7.7841277,7.3560686,13.0,13,-0.07447717
4.370537,0.91783136,-0.23404641,27.0,6,-0.07447487
36.5141,7.6681166,8.613826,32.0,14,-0.07447257
5.2645426,1.104617,-0.093893945,33.0,7,-0.07447027
38.202614,8.008771,10.4588785,10.0,15,-0.07446796
2.2448938,0.46775687,-0.61443645,49.0,0,-0.07444722
6.0904717,1.267931,0.108588874,40.0,8,-0.07444492
2.522251,0.5246286,-0.59477055,34.0,1,-0.07444262
7.7300053,1.6064388,0.4137681,28.0,9,-0.074440315
2.817923,0.58561677,-0.559452,38.0,2,-0.074438006
10.698085,2.221313,0.95592415,22.0,10,-0.0744357
3.040553,0.63077486,-0.49183,49.0,3,-0.0744334
17.375423,3.6014469,2.1787803,24.0,11,-0.0744311
3.3764634,0.6992333,-0.42337415,36.0,4,-0.07442879
37.68412,7.7971444,6.0950003,6.0,12,-0.07442649
3.808614,0.7873394,-0.34025604,39.0,5,-0.074424185
36.875515,7.623126,7.319433,13.0,13,-0.07442188
4.295317,0.8871742,-0.22985955,42.0,6,-0.07441957
36.74295,7.5823493,8.661515,25.0,14,-0.07441727
5.254657,1.0834056,-0.09364961,28.0,7,-0.07441497
38.04112,7.8364186,10.407114,10.0,15,-0.074412666
2.3147292,0.47346193,-0.6330714,43.0,0,-0.07439193
6.149717,1.2578824,0.10956621,45.0,8,-0.07438962
2.5107014,0.5130915,-0.5916213,41.0,1,-0.07438732
7.5614038,1.5438838,0.4044523,30.0,9,-0.07438502
2.7584944,0.56272656,-0.5472402,39.0,2,-0.074382715
10.553878,2.151054,0.94232786,22.0,10,-0.074380405
3.029295,0.61686796,-0.48963994,30.0,3,-0.0743781
16.922997,3.4461002,2.1205268,16.0,11,-0.0743758
3.3555405,0.6826928,-0.42044926,31.0,4,-0.0743735
60.07335,12.21115,9.709263,23.0,12,-0.07437119
3.7410479,0.7597655,-0.3339808,29.0,5,-0.07436889
36.426044,7.391108,7.2247925,27.0,13,-0.074366584
4.3709655,0.8861064,-0.2337324,35.0,6,-0.07436428
36.655895,7.424426,8.6345215,25.0,14,-0.07436198
5.1917706,1.0515611,-0.09246285,31.0,7,-0.07435967
37.98493,7.6867127,10.384338,10.0,15,-0.07435737
2.2860634,0.45929122,-0.6247892,48.0,0,-0.07433663
6.1582065,1.2361225,0.109636016,42.0,8,-0.07433433
2.4667087,0.49468768,-0.5808236,39.0,1,-0.07433202
7.695993,1.5433978,0.41136068,31.0,9,-0.07432972
2.8027916,0.56158024,-0.5556358,44.0,2,-0.07432742
10.842646,2.170514,0.9674287,22.0,10,-0.074325114
3.0701702,0.6140373,-0.4958973,51.0,3,-0.074322805
17.060095,3.4089494,2.136126,16.0,11,-0.0743205
3.280153,0.6548451,-0.41069973,39.0,4,-0.0743182
60.1156,12.001393,9.709263,23.0,12,-0.0743159
3.8003407,0.75800306,-0.33903584,33.0,5,-0.074313596
36.540184,7.2815685,7.2423463,13.0,13,-0.074311286
4.39362,0.8747443,-0.23477912,30.0,6,-0.074308984
37.067673,7.3732147,8.725402,3.0,14,-0.07430668
5.2012935,1.0346011,-0.09256756,30.0,7,-0.07430438
2.2838624,0.45056018,-0.6237539,47.0,0,-0.074281335
6.1289206,1.209113,0.10904264,45.0,8,-0.07427903
2.5161347,0.49592668,-0.5920712,47.0,1,-0.07427673
7.6464634,1.5057211,0.40842983,27.0,9,-0.07427443
2.7739139,0.54572886,-0.5495299,42.0,2,-0.07427212
10.920536,2.1464837,0.973704,33.0,10,-0.07426982
3.0663745,0.60271055,-0.4949587,45.0,3,-0.074267514
17.05767,3.3496747,2.1344197,32.0,11,-0.07426521
3.2452958,0.63670194,-0.4060687,25.0,4,-0.0742629
37.0736,7.266835,5.9836187,6.0,12,-0.0742606
3.8283813,0.7497112,-0.3413019,40.0,5,-0.0742583
36.988,7.243353,7.326303,13.0,13,-0.074255995
4.4102173,0.8628528,-0.23551181,31.0,6,-0.074253686
37.155025,7.2625966,8.740248,15.0,14,-0.07425138
5.187209,1.0129905,-0.092253424,28.0,7,-0.07424908
39.740368,7.753546,10.849177,11.0,15,-0.07424678
2.2701712,0.4400436,-0.6196128,35.0,0,-0.074226044
6.129177,1.1869527,0.10897283,51.0,8,-0.074223734
2.5274167,0.48899207,-0.5943207,45.0,1,-0.07422143
7.741616,1.4978095,0.41324475,34.0,9,-0.07421913
2.8181148,0.54472464,-0.5579255,41.0,2,-0.07421683
10.980413,2.1204548,0.97841036,44.0,10,-0.07421452
3.0374258,0.5860165,-0.4899528,41.0,3,-0.074212216
17.061462,3.2886126,2.1334448,28.0,11,-0.07420991
3.3098752,0.63738084,-0.41386834,31.0,4,-0.07420761
37.83848,7.286535,6.103135,6.0,12,-0.0742053
3.776064,0.7264729,-0.33642116,38.0,5,-0.074203
36.650597,7.0445366,7.254558,13.0,13,-0.0742007
4.191562,0.80489105,-0.2236839,27.0,6,-0.074198395
37.339,7.16334,8.77759,15.0,14,-0.074196085
5.1885757,0.9954078,-0.09221852,30.0,7,-0.07419378
37.55738,7.1984396,10.246646,20.0,15,-0.07419148
2.2090652,0.42020404,-0.6025308,38.0,0,-0.074170746
6.148795,1.1696117,0.109252065,45.0,8,-0.07416844
2.5251954,0.4798798,-0.59342086,45.0,1,-0.074166134
7.752684,1.4718927,0.41355878,34.0,9,-0.07416383
2.8392878,0.5385435,-0.5617417,39.0,2,-0.07416153
9.909136,1.8777245,0.88236475,22.0,10,-0.07415923
3.0509977,0.5781466,-0.49183,45.0,3,-0.07415692
17.04497,3.2268429,2.1300325,28.0,11,-0.074154615
3.3997436,0.6430045,-0.42483655,34.0,4,-0.07415231
37.514297,7.0884004,6.0468187,13.0,12,-0.07415001
3.8059866,0.7184608,-0.33886153,38.0,5,-0.0741477
4.3669224,0.82356,-0.23289503,42.0,6,-0.0741431
37.408512,7.0481286,8.788387,22.0,14,-0.074140795
5.117342,0.96323246,-0.090892136,30.0,7,-0.07413849
2.2560966,0.42099476,-0.6149541,38.0,0,-0.074103594
6.1176558,1.1404692,0.10862378,47.0,8,-0.07410129
2.5231056,0.46990824,-0.5925211,50.0,1,-0.07409899
7.6910157,1.4323901,0.40999994,34.0,9,-0.07409668
2.7948272,0.5200096,-0.55258286,42.0,2,-0.07409438
10.714834,1.9916828,0.9534838,22.0,10,-0.074092075
3.060865,0.5684036,-0.4930815,49.0,3,-0.07408977
17.085957,3.169783,2.1336887,26.0,11,-0.07408746
3.392318,0.62872976,-0.42361787,36.0,4,-0.07408516
37.49608,6.9494953,6.039935,6.0,12,-0.07408286
3.8770392,0.71786773,-0.34496242,36.0,5,-0.07408056
36.79155,6.805637,7.272876,13.0,13,-0.07407825
4.4268675,0.8180752,-0.23593052,41.0,6,-0.074075945
37.7273,6.9651113,8.857223,7.0,14,-0.07407364
5.0813437,0.93810385,-0.09019404,28.0,7,-0.07407134
37.8271,6.97671,10.306692,10.0,15,-0.07406903
2.2727547,0.4158983,-0.6190952,38.0,0,-0.074048296
6.1371408,1.1230539,0.10890301,38.0,8,-0.07404599
2.5380688,0.46399242,-0.5956704,47.0,1,-0.07404369
7.7175813,1.4094799,0.41115132,35.0,9,-0.07404139
2.800488,0.51095456,-0.5533461,46.0,2,-0.07403908
10.314021,1.8799589,0.91722697,16.0,10,-0.07403678
3.068563,0.5593136,-0.4940201,52.0,3,-0.074034475
17.082705,3.1106126,2.1319826,22.0,11,-0.07403217
3.3885257,0.61641026,-0.42288667,26.0,4,-0.07402986
37.47346,6.8100986,6.0324264,6.0,12,-0.07402756
3.8795214,0.70432895,-0.34496242,33.0,5,-0.07402526
4.2605495,0.77273667,-0.22692874,27.0,6,-0.07402065
36.97167,6.6989126,8.674562,10.0,14,-0.074018344
5.143619,0.9310449,-0.09124118,28.0,7,-0.07401604
41.022125,7.4180083,11.170113,12.0,15,-0.07401374
2.2703183,0.40767685,-0.6180599,34.0,0,-0.073993005
6.148896,1.1030382,0.10904264,38.0,8,-0.073990695
2.5569367,0.45822313,-0.5997195,39.0,1,-0.07398839
7.66544,1.3723264,0.40811583,30.0,9,-0.07398609
2.8272898,0.5061633,-0.5583072,46.0,2,-0.07398379
10.316277,1.8450418,0.9168784,16.0,10,-0.07398148
3.0627182,0.5472083,-0.49276862,55.0,3,-0.07397918
17.18726,3.06771,2.1436818,32.0,11,-0.073976874
3.3984737,0.6059729,-0.42386162,33.0,4,-0.07397457
37.570908,6.6924043,6.0443153,6.0,12,-0.07397226
3.8739898,0.6900633,-0.3442652,37.0,5,-0.07396996
37.034176,6.59013,7.3118014,13.0,13,-0.07396766
4.3281126,0.7693965,-0.23038292,30.0,6,-0.073965356
36.90849,6.554474,8.654317,21.0,14,-0.07396305
5.1409307,0.91203535,-0.09113646,33.0,7,-0.073960744
40.899395,7.248482,11.129737,12.0,15,-0.07395844
2.264117,0.39841077,-0.6159893,40.0,0,-0.07393771
6.2078557,1.0912601,0.110019974,45.0,8,-0.073935404
2.5489235,0.44761023,-0.59747,44.0,1,-0.073933095
7.701659,1.351084,0.40979058,33.0,9,-0.07393079
2.803901,0.49188176,-0.5533461,30.0,2,-0.07392849
10.020433,1.7560536,0.89003444,19.0,10,-0.07392619
3.0762846,0.5385571,-0.49464583,48.0,3,-0.07392388
17.168531,3.0025706,2.1400259,26.0,11,-0.073921576
3.357548,0.5865894,-0.41849938,31.0,4,-0.073919274
39.21308,6.8437743,6.3046227,14.0,12,-0.07391697
3.8803005,0.67722046,-0.3446138,37.0,5,-0.07391467
4.320934,0.7525692,-0.22985955,30.0,6,-0.07391006
36.520287,6.354105,8.558038,25.0,14,-0.073907755
5.10862,0.88792443,-0.090508185,28.0,7,-0.07390545
37.34801,6.484689,10.157095,19.0,15,-0.07390314
2.3207037,0.400021,-0.6310009,42.0,0,-0.07388241
6.1584177,1.0604262,0.10907754,38.0,8,-0.073880106
2.540868,0.43705767,-0.5952205,48.0,1,-0.073877804
7.7023916,1.3235133,0.4095812,31.0,9,-0.073875494
2.8017313,0.48142564,-0.55258286,35.0,2,-0.07387319
10.038282,1.7230943,0.8910803,19.0,10,-0.07387089
3.0489411,0.5228085,-0.4899528,41.0,3,-0.07386859
17.147604,2.9372559,2.136126,26.0,11,-0.073866285
3.4632773,0.592613,-0.43141752,48.0,4,-0.073863976
37.36359,6.386679,6.0036426,6.0,12,-0.07386167
3.8846045,0.664008,-0.3447881,39.0,5,-0.07385937
37.265068,6.363145,7.3484364,13.0,13,-0.07385707
4.236907,0.7227042,-0.22525398,24.0,6,-0.07385476
36.69208,6.2521267,8.59313,25.0,14,-0.07385246
5.08409,0.86538756,-0.09001952,27.0,7,-0.073850155
37.275192,6.338079,10.131213,29.0,15,-0.07384785
2.276368,0.38420206,-0.61857754,33.0,0,-0.07382711
6.2133503,1.047565,0.10998507,38.0,8,-0.07382481
2.5577517,0.4307742,-0.59881973,41.0,1,-0.073822506
7.5277324,1.2664666,0.4000561,24.0,9,-0.0738202
2.7937143,0.4700148,-0.5506748,37.0,2,-0.0738179
9.99708,1.6801158,0.88689685,16.0,10,-0.07381559
3.0312667,0.5088912,-0.48682413,47.0,3,-0.07381329
17.171455,2.8796835,2.1378324,22.0,11,-0.07381099
3.351772,0.56149673,-0.41728067,38.0,4,-0.073808685
43.335724,7.251906,6.9591446,9.0,12,-0.073806375
3.8436675,0.64320874,-0.34095326,43.0,5,-0.07380407
36.512497,6.1035576,7.1957893,13.0,13,-0.07380177
4.306382,0.7190975,-0.22881283,36.0,6,-0.07379947
37.705536,6.289444,8.82528,18.0,14,-0.07379716
5.1265297,0.85420996,-0.09071761,31.0,7,-0.07379486
37.245636,6.1993876,10.117236,19.0,15,-0.073792554
2.2205148,0.36680743,-0.6030484,37.0,0,-0.07377182
6.1558056,1.0157756,0.10890301,38.0,8,-0.07376952
2.524629,0.41614023,-0.5907215,41.0,1,-0.07376721
7.571304,1.2479948,0.40214953,28.0,9,-0.073764905
2.7934008,0.45994034,-0.55029315,42.0,2,-0.0737626
10.038273,1.6510271,0.89003444,19.0,10,-0.0737603
3.0525165,0.5015116,-0.4899528,41.0,3,-0.07375799
17.15006,2.814578,2.1339324,22.0,11,-0.07375569
3.4399052,0.5639227,-0.42800516,50.0,4,-0.07375339
37.866245,6.207623,6.07748,6.0,12,-0.073751085
3.869483,0.63365424,-0.343045,40.0,5,-0.073748775
36.60333,5.987468,7.209527,27.0,13,-0.07374647
4.369971,0.7140442,-0.23205765,26.0,6,-0.07374417
37.65994,6.1468277,8.809533,11.0,14,-0.07374187
5.156964,0.8417158,-0.091206275,33.0,7,-0.07373956
47.63068,7.765687,12.931117,18.0,15,-0.073737256
2.2866232,0.36953238,-0.6206481,37.0,0,-0.07371652
6.2341557,1.0074779,0.1102294,54.0,8,-0.07371422
2.539462,0.4099392,-0.59387076,40.0,1,-0.07371192
7.6288524,1.230141,0.40497568,31.0,9,-0.07370961
2.833755,0.45642993,-0.5579255,39.0,2,-0.073707305
10.083316,1.6223086,0.8935207,19.0,10,-0.073705
3.0658648,0.4932682,-0.49183,41.0,3,-0.0737027
17.10442,2.7488747,2.1271076,36.0,11,-0.07370039
3.4691963,0.5569165,-0.43141752,54.0,4,-0.07369809
42.615593,6.833552,6.835874,9.0,12,-0.07369579
3.8519986,0.6169913,-0.3413019,38.0,5,-0.073693484
36.727665,5.8828287,7.230135,13.0,13,-0.073691174
4.372315,0.69954777,-0.23205765,30.0,6,-0.07368887
36.431232,5.8223066,8.517547,3.0,14,-0.07368657
5.09668,0.81362057,-0.09008932,28.0,7,-0.07368427
2.238225,0.35410047,-0.60718954,37.0,0,-0.07366122
6.2593613,0.98914826,0.11061335,49.0,8,-0.07365892
2.4927552,0.3934756,-0.58262324,45.0,1,-0.07365662
7.741609,1.2206141,0.41073263,28.0,9,-0.07365432
2.8274953,0.44580922,-0.55639905,44.0,2,-0.07365201
10.061087,1.5845248,0.8910803,22.0,10,-0.073649704
3.067568,0.4825625,-0.49183,40.0,3,-0.0736474
16.007893,2.5153563,1.989639,2.0,11,-0.0736451
3.4358194,0.5392654,-0.4270302,40.0,4,-0.07364279
37.37784,5.8598967,5.9923797,6.0,12,-0.07364049
3.8540237,0.6042131,-0.3413019,45.0,5,-0.073638186
36.825558,5.7667284,7.2453995,27.0,13,-0.07363588
4.353024,0.68088907,-0.23090626,37.0,6,-0.07363358
36.95386,5.773606,8.634971,29.0,14,-0.07363127
5.0915866,0.7945903,-0.089949705,27.0,7,-0.07362897
2.2909946,0.35425553,-0.62116575,44.0,0,-0.07360593
6.24499,0.9645442,0.11029921,45.0,8,-0.07360362
2.5403361,0.39190325,-0.59342086,41.0,1,-0.07360132
7.7616143,1.1960146,0.41157,28.0,9,-0.07359902
